-0.7488973954 0.0459389960 0.2699534696
-0.5138952741 0.6038553571 0.9066380425
-0.0649148884 0.2151412051 -0.2846365785
-0.7873564908 -0.3076371380 -0.0872519145
0.1373139717 0.8082890237 -0.7124040841
-0.8158094427 -0.4405766395 -0.3534152200
-0.1167385694 -0.8289214766 -0.4586651361
0.9691360522 0.2080199738 0.4702741515
0.7115044501 0.0161402020 -0.4138817319
0.2298967859 0.8367447287 -0.2297500762
0.6200404549 -0.9277645639 -0.8686994295
0.2379564948 0.0948983821 0.3305941232
0.6709403287 0.7782678557 0.2288505640
0.4059155751 0.1640386581 0.7494470060
-0.9934533495 -0.8078210999 -0.1029838042
0.6358444620 0.2874426658 -0.3387687209
-0.1983719909 -0.2712670687 0.9250447310
0.2703936383 -0.3951223647 0.9002751096
-0.4935043926 0.6425325963 -0.4793895407
-0.2082794645 0.7522450727 -0.8542722349
-0.6545214552 0.7291300966 0.9650743544
-0.1595475486 0.8895010343 -0.7898390515
0.1651553349 0.5654948993 0.2889455651
-0.7723394512 -0.6958060180 0.9272811038
-0.1876945208 -0.4770369196 0.0276126836
0.0853953435 -0.6479143738 -0.9146106407
-0.2822765518 0.1307156319 0.9777340546
0.0387590979 -0.8253440764 -0.0342118396
-0.3532084405 0.9973962175 -0.1450510744
-0.7216894212 -0.6267933553 0.5894031519
0.2067663903 0.9916748296 0.6440652457
-0.0920235317 -0.9273511480 0.9077848969
0.9664948847 0.9238719650 -0.3486483587
0.9233167942 0.3797642812 -0.0245840654
0.5084928916 0.5515084538 0.5585049044
-0.2532705419 0.5768502685 0.1691747520
0.1901264794 0.6312261973 0.7193591994
0.5112236928 -0.3207703423 0.8627095108
-0.5946452414 -0.2514900601 0.2597780737
0.4205797100 -0.7520918371 0.2403753874
0.7716886191 -0.8907152813 -0.6408487874
-0.1578646577 0.5758800279 0.2947561133
-0.0465157406 0.4873507885 0.3656080867
-0.6787251462 -0.8329791165 0.0650859618
0.4046218183 -0.2557810608 -0.4108497372
0.5795282062 0.3742770057 -0.6013725221
-0.6741956460 -0.8535515908 0.4264461068
-0.6949185043 0.9931125120 -0.7229781330
-0.2075324324 -0.8350161651 -0.5846797553
0.3197224083 0.7687454423 -0.8082949232
-0.9789608322 0.3902336702 -0.2327910868
0.9938957622 -0.3600052199 -0.8835636368
0.1958800165 0.1215959280 0.2565131773
0.1039098990 0.8544887392 0.1559260855
-0.4523997222 -0.2216459757 0.5469669936
0.3324982829 0.1320829243 -0.9530024472
-0.5713487730 -0.8410213064 -0.8442498689
-0.8604583352 0.6914209918 -0.3573781915
0.0507052161 0.1858353731 -0.3751993637
-0.5136882105 0.9646571611 0.1745986281
-0.1945644730 0.3599407417 -0.1945154388
-0.0591954204 0.0444786259 -0.8692707123
-0.5508505916 -0.7906503538 -0.3966730124
0.1990918308 -0.6551974047 -0.3074580311
0.5820169628 -0.6352980296 -0.5220836274
0.7982757823 -0.2066754140 -0.1613482082
0.5391702883 0.2680066629 -0.2522323818
-0.3064611541 0.4394231924 0.3304541043
-0.6263571185 0.8965894029 -0.5616802544
-0.7307216679 -0.6556775127 0.1939484514
0.1752970569 0.9429749304 0.3949318454
0.2958831031 0.4341196612 0.9416710949
0.9787297101 -0.6538260656 -0.7902545965
-0.4253133916 -0.9539080983 0.9495339734
-0.2098148995 -0.2094406332 0.6178815599
0.8595696459 0.7343941173 -0.9042886145
0.4581756598 0.6468511810 0.9855379065
0.2919303880 0.8693166896 -0.8123473206
-0.6104238269 0.5297007189 -0.9762390318
-0.1749602877 -0.4454658596 0.1149005107
-0.5310078336 0.0210114484 0.6473080348
0.5555455763 0.9048383579 -0.9370973911
0.7995115598 0.6844265509 0.0156415883
0.8539604219 -0.9731275876 0.6595372589
0.2625958805 -0.6843913646 -0.1456820072
-0.9619398266 -0.3948944561 -0.8143881526
0.4917493145 -0.4823836498 -0.3883754181
-0.2876915155 -0.2741467390 -0.0331999846
0.1860560021 -0.0299976855 -0.9011524344
0.7081156282 -0.8095206301 0.0444551335
-0.1749136279 0.2284737636 0.5512135511
-0.3586574437 0.8277981713 -0.5621366580
-0.7842047439 -0.9170759785 0.5851068252
0.9814156302 -0.2709261373 0.9358359996
-0.9428409296 0.0769864728 -0.4948043290
-0.9158308113 0.6605096134 -0.1828328699
0.2650655199 -0.3148319945 0.8723342320
-0.7883376137 -0.0262741022 -0.2213603180
-0.6516133261 -0.9363245296 -0.5735235166
-0.0785399169 -0.1241973900 0.4936023752
0.2759625483 0.7474595562 -0.8027689240
-0.0057220309 -0.4132160375 0.1997386207
-0.8450480376 -0.9254806701 0.8674583027
-0.4960908785 0.9909199811 -0.7823148734
-0.5895584929 -0.6242697762 0.8312481416
-0.5665001438 -0.0912928344 -0.1695630806
-0.3088191826 -0.5191220173 0.7681877682
-0.5417429692 -0.2040234700 -0.5193975048
0.5758132312 -0.9016361442 0.8466430403
-0.3335727781 0.1471497831 0.6210399570
-0.9668193859 -0.1185974053 0.1215639916
0.2101507030 -0.0730885139 -0.2267088311
0.9777337030 -0.9492276853 0.9170093498
-0.5373426689 -0.2001613712 0.2829747597
0.5915176010 0.6678586625 0.1004289340
-0.3766426391 -0.4625167108 0.3738214587
0.4156369497 -0.7226217885 -0.2236462253
0.7768324692 -0.8221127947 0.0630494877
0.0606278437 -0.4154878344 0.6979328627
-0.3350875157 0.2353049250 0.6307299666
-0.8183842954 -0.8136524330 0.1311548011
-0.4504763223 -0.3780386234 0.5519416236
0.5721706393 0.5759611289 -0.5542741875
-0.8803231455 -0.3322558090 0.3185309175
0.8879302999 0.2978216026 -0.1974530493
-0.8679708751 0.4046791166 0.8064587972
-0.3554719623 0.7573959129 0.0622673486
0.8795924896 -0.0181599780 0.9760696930
-0.2290399660 0.4662572220 0.9780662274
0.5186958264 0.6799004334 0.3616385308
0.9480899221 0.3271313013 0.7975770512
0.7011764125 -0.5180418379 -0.6153754485
0.3241355759 0.4037294536 0.4734500195
-0.7164629160 0.8286676192 0.3028031246
0.6800317633 0.5965051929 0.1828812149
-0.9644317061 0.6124249087 0.1730649260
-0.1885848677 -0.3843224715 -0.2378879089
-0.4815228371 -0.3404190268 0.2055152635
-0.1189363797 0.4597421890 0.1415970337
0.0043304291 -0.6131437698 -0.5228853461
0.3579693788 -0.6249868123 -0.6731019317
-0.0034993405 0.3427109296 0.3878031196
-0.8647960084 -0.7607979329 -0.9586537284
-0.7225077907 -0.3840129349 0.5098482442
0.8104505104 0.5970745076 -0.4130700020
-0.7098189800 0.9932048118 -0.4104844295
0.8362424177 -0.3616799678 0.6244538701
0.5984769809 0.5562533431 0.0815427776
0.1289348725 0.2059806974 0.9555808470
0.6521920106 0.5715840065 -0.8043543413
-0.9028093295 0.6140730845 0.4849903273
-0.9911050565 0.1464144122 -0.2062444722
0.0985813390 0.5300942793 0.1501448868
-0.5030089381 -0.2195549212 0.2894133864
0.5332856817 -0.5162972284 -0.7403252452
0.8136174326 -0.4247227100 -0.7321815475
0.4501241550 0.9411865103 -0.5569373617
0.2638869749 -0.5987501279 0.1808815401
0.8290046695 0.1073899569 -0.6423384828
0.9968585916 0.5523084668 -0.9446299025
-0.3461252292 0.8005440438 0.1162879257
-0.5104189119 -0.6452862969 0.3177354059
0.8271936897 -0.5813695380 0.3043230773
-0.0687156761 -0.2739840803 -0.2485671078
0.2031445511 0.2750006645 0.2399935973
0.2242341525 0.4491676214 -0.6402727566
-0.2991963340 -0.5288194242 -0.3385692671
0.3578960520 0.6701267796 0.6779654647
0.7433075636 0.9827490210 0.3635071424
0.8473537982 0.1083868341 0.8754916502
0.6943052569 0.8991572457 -0.3226764195
-0.5059890730 0.8198709500 -0.0247616337
-0.2003605780 -0.0820713224 0.2762551727
-0.4266320896 0.4627746732 -0.2351648809
-0.2323448918 0.2283279319 0.5412695436
0.3952446172 -0.7993488524 -0.0197073590
0.0610662130 -0.6211216857 0.4864976081
0.3576417343 -0.3555849619 0.1564426312
-0.4618954098 -0.1523889943 -0.9685526123
0.5263907686 0.3982063683 0.1410965522
-0.5849078206 -0.4100502931 -0.1718631175
0.5307328748 -0.6961351211 0.5550812604
0.3479400252 -0.9280016311 -0.2327728858
-0.9992018891 0.8534091242 -0.8732682747
0.1459667918 0.3383773886 0.2170129433
0.0352363434 0.6904931526 0.1658397176
-0.1132831041 -0.9349596052 0.1504933605
0.7982173856 -0.1326355259 -0.5519363260
-0.4779729655 -0.9547701448 0.5002797807
0.5914523205 -0.5033046949 0.5239240706
-0.9190816968 -0.3315862714 -0.3573959025
-0.4376225413 0.1591535709 0.8906723294
-0.6651661170 0.5067712862 -0.2708347725
0.7401036287 -0.8211101086 -0.5245818063
-0.8947457708 -0.8638946696 -0.5708889409
-0.7351301345 -0.9459175067 -0.7041059925
-0.3973036904 0.6796559666 -0.2568687495
0.5122913178 -0.3600129175 0.9254721103
-0.6633845132 0.6156221286 0.0258690201
0.4885618006 0.9588141096 -0.0753106320
-0.5862884798 0.1532211651 -0.1795970859
0.2862113582 0.1413099758 -0.0314309364
0.8348431358 0.9831221871 -0.4289380474
-0.0633851170 0.2189684217 -0.5538204653
-0.9911233735 -0.3669992205 -0.3025469669
-0.7200957880 -0.3611613405 -0.9294024993
0.1955629854 -0.7367752260 -0.2003112689
0.7720787537 0.5811418395 0.6405042139
0.7559192067 -0.2603893078 -0.9827920295
0.7756667940 -0.3882719003 0.0793586853
0.8249407667 0.3657892796 0.3220835348
-0.2975977148 -0.4370131041 0.6220899167
-0.5559285389 0.9933305672 0.0532352897
0.9549943275 -0.7162781123 -0.5366354761
0.8651117038 0.4756476913 -0.2375042530
-0.1128828679 -0.6542437206 0.4529530426
-0.0946488321 -0.7282585619 -0.7642411099
-0.3027094611 -0.4080492244 -0.6245947110
-0.4015057850 -0.8579783976 -0.3384615470
-0.2304136672 0.8431475850 0.1353871896
0.1033085684 -0.8101807654 0.4039700945
-0.1413585172 0.0568074165 -0.6570472585
0.3696069316 -0.6603104534 -0.1828281234
-0.3650116596 0.0605229299 -0.2296860116
-0.6951472653 -0.4638937423 0.7079250270
-0.2295698311 0.7718683430 0.0198735349
0.2872624939 -0.2302450902 0.1015717142
-0.9783207711 0.6430866485 -0.7955082373
0.8054952051 -0.9595572839 -0.5850129146
0.6645801699 0.9968656393 -0.6709143966
-0.8255398895 0.5983785662 -0.4857065992
0.6208790315 -0.9325495635 -0.1559222112
-0.2449724425 0.1743043697 -0.6031963891
-0.6178473863 -0.3000706536 -0.4419582033
-0.7532402646 -0.4557160256 -0.7321121611
-0.8764805129 -0.1060415008 -0.2396103250
-0.6981009222 0.8571441268 -0.5189089389
0.8100021705 -0.0813809551 0.4365125185
0.4628245512 0.4020309126 0.4930978424
-0.3901546592 -0.4253720504 0.6419751760
-0.4282044816 0.5887027510 0.6107852794
0.4671029007 -0.5256875112 0.5975449301
-0.0716298737 0.5072394031 0.0967532137
0.8651175922 -0.5907109678 -0.2435647138
-0.0096661219 0.7537245264 -0.3751119844
-0.2823625277 0.9491373634 0.1275135250
0.7463264185 -0.3250242382 -0.6420918379
0.2939643004 -0.2290898253 0.3612476817
-0.9178725194 0.4936562650 0.1721850888
0.7331525136 0.6317534217 -0.2781786395
0.9990358810 -0.9512634900 -0.4832156256
0.0232078995 -0.1869273541 0.6504120747
0.0812530616 0.7544430355 -0.1618902612
0.6544833370 -0.6493172004 0.4485557270
-0.5238294293 0.4406260554 0.0713567743
-0.3385963509 0.7858182008 0.4797867271
-0.9204348757 0.0451817509 -0.2808890601
0.0025617341 0.1466853629 -0.5281936558
0.5879229304 -0.1849742290 0.5702942216
-0.6254217749 0.0514479334 0.6168883572
0.1114023709 -0.5663915942 0.2408649121
-0.7270714887 0.3647424221 0.1372283250
-0.7880643973 -0.4781650366 0.4314956319
0.1233054714 -0.7903553667 0.0600563995
0.2341228471 0.5683545597 -0.5324863368
-0.4635963020 0.1547358967 0.4252641847
0.6611673815 0.7651025789 -0.7612174879
-0.1218361928 0.3661750737 0.3331689282
0.5538413765 -0.9658791639 -0.2042131895
-0.1781742641 0.1748920145 0.9456072192
-0.0750881308 0.2146796317 0.8926400414
-0.4541482542 -0.1805315589 -0.6433400554
-0.9487622185 0.8634187573 -0.1881232396
0.4139275563 -0.9105527456 0.0011442214
0.1206655101 0.7495512493 -0.9698357273
0.0115796866 -0.0395296806 0.3601672627
-0.3416846505 -0.2028170296 -0.9542920011
0.9594883305 0.5068943163 -0.0538064131
-0.4884401704 0.9690518074 -0.7161819207
-0.8097882813 0.2857053029 -0.2632209880
-0.6784750817 -0.7072647107 0.8155249437
0.3640300602 -0.9819920744 0.1683579699
0.4440832001 0.9678563295 -0.9280521767
-0.1164148908 0.0419236148 -0.2198184010
0.6814238678 0.1709120292 -0.6972774643
0.0551381037 -0.0134501233 -0.1511243630
-0.5943669713 0.7370801472 0.4318238133
-0.5997446007 -0.6055278592 0.9495259214
0.2978093305 0.5349525048 -0.8316668170
-0.9587478573 0.3213566357 0.8892882988
-0.6909029268 -0.3226388064 0.4304987737
-0.7092491704 -0.7332964704 -0.4572021966
0.0113577540 0.8482102683 -0.1269350179
-0.0744974398 0.9547780997 -0.4088894060
-0.3861846234 0.3358420304 -0.2934204276
0.4935748098 0.2530293760 0.3199626066
0.6949498432 0.4571389757 -0.8933233943
0.8781510941 0.8855105788 -0.2321488620
-0.7194124081 0.6710405324 0.6120316136
-0.4794740249 0.5002963313 -0.7340474726
0.8942880770 -0.3718014307 -0.9132497325
0.0285601549 -0.5824654076 0.6436993024
0.0383230282 -0.3535773781 0.8328656074
-0.3518788050 0.8748573805 -0.1201099955
0.3442531620 0.9115305476 -0.4561392170
0.4311765080 -0.7375958658 0.2468394048
0.3986080065 -0.1829772061 -0.6831416224
0.7126871021 0.3532872783 0.9805273156
-0.9047313840 0.2284439424 -0.4138763757
0.5618230829 -0.5128660400 -0.2206003834
-0.6035096801 0.3479078661 -0.1391709098
0.7965623189 -0.4681579788 -0.4522724855
0.1114612111 -0.3777624275 -0.6483175249
0.9762686846 -0.7037450103 -0.4960623679
-0.6238136932 -0.5842123362 0.0787617048
-0.0599334792 0.7828049650 0.9402747833
-0.3259066455 0.9248540936 0.7870110430
-0.8022421686 0.4881300800 0.1363751200
-0.5153527488 0.8843891590 -0.2420940310
-0.8305024703 -0.1594822592 -0.5596048579
-0.8566864577 -0.8112801800 -0.9000057099
-0.2228119379 -0.7128653254 -0.8467913591
-0.3790659020 0.7334278577 -0.5099345138
-0.3181249394 0.2081452067 -0.1701880809
-0.9855478447 -0.6460455647 0.6580478254
0.8324902254 -0.0947437215 0.2556098172
0.0986640521 0.0380901948 -0.5879166638
-0.0548073756 -0.0393854843 0.0278402578
-0.1144360896 0.7299400062 0.9008385284
-0.9127828704 0.4467337096 0.6411117224
-0.5594017603 0.5548652457 -0.8688983578
-0.7820544960 -0.1302186012 0.2303458510
-0.7905981200 0.4498613474 0.6687368154
-0.4565038927 -0.8986080856 0.7199608744
-0.2632267048 -0.5818246579 0.6038899786
0.0499024326 0.4263615280 0.6902423446
-0.6636821653 0.8207473188 0.9897640140
-0.5696653526 -0.8988769658 0.6970756835
0.8913583009 0.5139749301 0.2071828489
-0.4720606008 -0.7584114783 -0.6994467147
0.2227491461 -0.9602299600 -0.5814252055
-0.3634146904 0.0734117334 0.7125610115
-0.0683577498 0.9367436568 0.0000674307
0.4712721594 -0.2958660668 0.0762880397
-0.0949874133 -0.7825886389 -0.0215114634
-0.2560689218 -0.5766109853 0.6452743574
-0.0171101464 -0.4222311744 -0.2877193697
-0.6206594475 -0.4250854731 0.5155380842
0.1594710081 0.2925986848 0.5777145187
0.2416316369 -0.0673860035 0.5981567292
-0.8241906221 0.0625589793 0.6272519431
-0.7562477385 0.3551409375 0.8805286517
-0.2893865401 -0.3246019695 0.4580987184
-0.7857556152 0.7705379895 0.2638719736
-0.6806610906 -0.7557483798 -0.3408004612
0.4893617544 0.4228372285 -0.3510354376
-0.7557765293 0.7458741243 0.9223260803
0.2126926505 0.1249357969 0.8609497960
-0.3144694852 -0.7643729410 -0.3873111420
-0.9972215470 0.5903690408 0.8925152051
-0.5590196523 0.3722388726 0.9237400667
0.7524126601 -0.2589879444 0.0587546828
0.4660441515 0.4670817503 0.2573020884
0.7739797378 -0.9664137332 0.4976875315
-0.5688775831 0.7133441002 -0.8615850500
-0.9927108426 0.5646359673 -0.8465184721
-0.7240688950 -0.2361814471 -0.9037384823
0.0947095666 0.5067833931 -0.7367601197
-0.7792334303 0.0388037635 0.9481385769
-0.5754234886 -0.5169306586 -0.4136162861
0.6897020680 0.2383534711 -0.1042174048
0.9044580942 -0.5172551491 0.6890384185
-0.8347346478 -0.0346896890 0.7922812810
-0.5149981740 -0.6822401230 -0.9832106148
-0.1926304317 -0.7871222143 0.6006414252
-0.9684936845 0.0907479701 -0.6374500607
0.1045777111 -0.2909875588 -0.6222943053
-0.5134277518 0.5939993042 -0.1370238188
0.3501802434 0.2882682891 -0.1758790025
-0.2094639781 0.1234491941 0.6333873115
-0.9670086225 0.1207674239 -0.7585691721
0.3376547015 0.2752906760 -0.4700216162
-0.5906342954 0.0341789317 -0.5958354526
-0.0983646428 0.6673177522 -0.9409398402
-0.2200308406 -0.1932234194 -0.4975444517
-0.0305510819 -0.3648494952 0.9588541222
-0.2225142456 0.3062908764 0.5546486661
0.1396804719 -0.6027708598 -0.7519811335
0.6444950712 -0.5248188989 0.5492653806
0.0573741733 0.3583155297 -0.2965433387
0.1698980879 0.2534274259 0.8289390851
-0.0888248193 -0.9468158937 0.6120562880
0.4378933231 -0.0133680149 0.6179644231
0.2411661043 0.2197711270 0.0234584930
0.1878889409 0.8017692858 -0.9013834507
-0.3389607883 -0.3864025125 0.2576630417
-0.1084611437 -0.8806738569 -0.7734347389
-0.6402750756 0.9454128194 0.9722631421
0.8873222174 -0.4519343384 -0.3800090196
-0.1010067353 0.7636068002 -0.6555653707
0.6568418361 -0.6453674628 0.0705536012
-0.8449062062 -0.2998477456 0.2576952004
0.0189540581 0.5227988855 -0.5229775570
-0.1526582065 -0.3070136078 -0.5575367523
0.4166356810 -0.0618517457 -0.1775641618
0.7681593516 -0.2916136111 -0.6438658301
-0.1429210171 -0.4190728679 0.9232954832
-0.9324650699 -0.5055584987 -0.9863073879
0.3279998492 -0.4853218435 0.6332186518
0.5344700799 0.9142808675 0.8622356739
-0.6976014300 0.7898380154 0.2936964032
-0.2935116342 0.9907151004 -0.3461066217
0.0676854873 -0.0383619017 -0.1208919450
0.8709707176 -0.8143118471 -0.5076218491
-0.5813890807 0.4978400432 0.8209837311
-0.6558254273 -0.9962663086 -0.1236798486
-0.6336206901 0.9748478826 0.0374482624
0.4975388205 -0.2264477999 0.9739615117
0.1842333010 0.9883794555 0.9450580039
0.2749261693 0.9474374997 -0.0972370143
0.1647970543 -0.2718648593 -0.5378372886
-0.8542404568 0.9459442017 -0.8425980075
0.1115254597 -0.3541844632 -0.7120013621
0.4030919667 -0.8239898325 -0.0978821881
-0.4713226877 0.7165332858 0.9397651971
0.7093438617 -0.7236528280 -0.8948984123
0.5664919786 -0.1788507903 -0.9077168387
-0.3817677063 0.2877788178 -0.9901686406
0.2691238304 -0.2378445736 0.1361348796
-0.7660412986 0.5860803995 0.0848360593
0.7244990357 0.3351458713 -0.3033439372
0.3177602452 -0.7951671876 0.5883894171
-0.2206916751 0.4500814018 -0.5918902515
-0.0008951787 0.9411190250 -0.1051267682
-0.2618173150 -0.6028865886 -0.5507041970
-0.6367723845 -0.7663836589 -0.7993234581
-0.7646362197 -0.8839802233 -0.4675443982
-0.7553721866 0.1889204620 -0.6757497949
0.1274619261 -0.3531512914 0.2083486921
0.3011830926 -0.5576112539 -0.0882583835
-0.5820504064 -0.1390987454 -0.8724203394
-0.5418669734 0.9567668427 -0.6065869074
0.4403804217 0.2949206855 0.9724395195
-0.0982687851 0.7359769670 -0.5217905921
0.6778461825 -0.6609273913 -0.6101438533
0.8525878653 0.1149473686 0.1139172717
0.2716259322 -0.4885283389 -0.7826954910
-0.6746211725 -0.5460319988 0.4086450904
-0.9021786602 0.3386584344 0.1243709923
0.0599651241 -0.4124004434 -0.7339309389
0.7352825152 0.7042041854 0.1224837953
-0.2043167166 0.3466265182 0.4595289077
-0.4161691927 0.0713060470 0.2367983202
-0.3465775339 0.3492030229 -0.5352741771
-0.4880329997 0.3734848193 -0.4218916021
-0.2588713493 0.1673005008 0.5803514104
0.5980465190 -0.6018829727 0.6475269986
-0.6590260356 -0.0184948943 -0.0810908721
-0.7613712897 -0.7770281136 -0.8069144201
-0.7141072657 0.7590032316 -0.3758343872
-0.8655439019 -0.7460348449 -0.2332231779
-0.7578013910 0.4837935636 -0.5190898464
-0.3426592983 0.7434212838 0.1013832710
0.1140868020 -0.4165508404 0.6155795442
-0.2202595390 -0.4308133625 -0.6823868563
-0.8591303452 -0.5652129254 -0.0783152586
0.4706315753 -0.9115826598 -0.7113604476
-0.1378680096 -0.0719394662 -0.7294982277
-0.3159290133 -0.3699372415 -0.9707206553
0.2601400280 -0.4220611823 -0.3334591159
0.3889809133 -0.4416158335 0.0524997473
-0.4779367528 0.9854708424 -0.0201644096
0.6876019390 -0.0690272420 -0.6305680993
-0.2515568641 0.4235023816 -0.1946886022
0.6375769141 -0.3668337472 -0.3842592722
0.3554431064 0.0165184951 -0.2595198511
-0.4354457051 0.7300861274 -0.4734895198
0.6712046400 0.1228749175 0.3324195845
0.7292000137 -0.4094070597 0.4052770850
-0.1957669262 -0.4251124325 0.6230999646
0.6221769709 0.3051478360 -0.5876681069
-0.7752158225 0.8949396642 -0.6350122714
0.3020303372 -0.0403929286 -0.6469738152
-0.6857915669 -0.4755929178 0.2902013966
0.8392646443 -0.8365292798 -0.5949059895
0.0908129964 -0.5647668642 0.2491209050
0.2766358590 0.9606718868 0.0144923938
0.4488216193 0.2624679637 0.2873564115
-0.1648738560 -0.3232846028 -0.1316483463
0.2697853937 -0.2567791495 -0.6742196388
0.1610654232 -0.7292559058 -0.2290285100
0.8085281604 0.1776889475 0.6480283977
-0.1668949953 0.5112603593 0.3381419529
0.1046206621 0.2929836121 0.4686153066
0.1567924099 -0.5766183969 -0.6496095020
0.0993561967 0.3797641302 -0.1361310441
0.7079135852 -0.0136012698 -0.4881793741
0.4912337119 -0.7432207551 -0.8251569262
0.7440441021 -0.0679138439 0.2568530505
0.5249854347 0.0057364072 0.1672550537
0.6538775219 -0.3753672647 0.0363507138
-0.5530683277 0.4821546075 -0.0997293778
0.3734267153 -0.6144565623 -0.7590052108
-0.2590246622 0.4244362857 0.3154976675
-0.0387198818 0.7725295785 0.7683703869
0.4271149628 0.0583737215 -0.1123119534
0.4640187342 0.3174491709 0.4216577534
-0.7303236040 -0.6108160305 0.0210299397
0.1059997609 -0.9070939879 0.3430625865
-0.9652236689 0.9696570313 -0.8367194548
-0.6697868781 -0.1081741390 0.6360530187
0.9480165304 0.1291480744 -0.8652300604
0.5733363086 0.5022426720 0.6582075464
0.1820846635 0.1195282688 -0.2639956041
0.5210962150 -0.8076403491 -0.4309533246
0.6319346294 -0.4184405010 -0.4554241027
-0.7696023088 0.2160231780 -0.9377007286
-0.4892676320 0.5306304960 -0.0610726793
-0.0248555485 0.0667878682 0.4994726029
0.7343104403 -0.1728959643 -0.0314931593
-0.5067992991 0.7034174250 0.5985040860
0.6870343798 0.4889077364 -0.3854545788
0.0642208958 0.6557596550 -0.0453232546
0.8101528722 -0.9689964404 0.5871472462
-0.8491157065 0.8337794459 -0.0558445434
-0.0830259764 0.1406491703 -0.2945952893
-0.6723548846 0.6476671949 -0.8013641963
-0.1297230361 -0.3429702438 0.2990684442
-0.3438911859 -0.3931079216 -0.9856812679
0.0595435330 -0.1170582329 0.7235002586
-0.8506601194 0.5524680328 0.9772300446
-0.3492351450 0.0712200519 0.1766399027
0.5905102489 0.6261175551 0.9250533333
-0.4242259465 0.5750834376 -0.9377677580
-0.3509054176 -0.9175622119 0.7531682520
0.5417414252 0.5418103351 -0.6227701453
-0.1507017918 0.2093778229 -0.0457105519
0.2864480829 0.0240980847 0.2472741950
-0.9373028611 0.5098977218 0.7309725323
-0.7284527230 -0.1753963570 -0.5335167011
-0.6210988251 0.3962467415 0.2754795325
-0.6169483442 0.7935665953 -0.1642940216
0.2974628041 -0.6123760946 0.5207818456
-0.3911536163 -0.6268177838 -0.3814707007
0.0967139685 -0.7698870402 0.4903809110
-0.0112150934 -0.3064933375 0.4313868473
0.4659777079 -0.1581403842 -0.8675119076
-0.4031895621 -0.0905165498 0.8705072422
-0.1320106460 -0.3523353306 -0.6876569424
0.4275651895 0.1154490215 0.2477197602
0.4516579836 0.1439787011 0.7997614383
-0.9641684435 0.8627421862 -0.7903587796
-0.5346504915 0.1877834279 -0.9716292547
0.9353008882 -0.0514815093 0.1550272870
0.0206047690 -0.5324567466 0.6635416702
0.1291332655 0.3992751245 -0.2180277603
0.5620926989 0.4920143811 -0.7623335511
-0.2722253917 0.9917308839 0.0598379570
-0.9959235333 -0.9314265549 0.3378561435
0.9026012503 0.4333049995 -0.8923656841
0.4715726991 -0.0217675590 -0.5631647414
0.3279642758 -0.9365870355 -0.7306472452
-0.0673508432 -0.3807007249 0.2287112481
-0.0363679983 -0.6623472951 -0.0347036502
-0.4984845464 0.9527636737 -0.8426405689
-0.2956793710 0.9797960306 -0.0259476675
-0.9349605219 0.9429145663 0.5290993980
0.9925616211 -0.9180812040 -0.5011680803
0.1623089203 0.9803584653 -0.8891268593
0.1723021366 0.0770745314 -0.7417303056
0.3764030676 0.1935403405 -0.2713574002
0.7276427538 0.6058773811 -0.3085369898
-0.9463385780 0.8880638031 0.8788776095
-0.4038741757 -0.1350384851 -0.1935269478
0.9726639635 -0.3120000984 0.5200477781
-0.2841547384 0.7491219808 0.0628453772
-0.6092665315 -0.1483256228 -0.0821179336
0.3961606480 -0.6743472387 0.1146681351
-0.7730360034 0.8282176602 0.1873991528
-0.3680665933 0.8441158209 0.9117448973
0.9698854017 0.5644370372 0.3508866686
0.0712666924 -0.9874403436 0.8221929158
0.8353524476 -0.8682100779 -0.5769159259
0.6550468262 -0.6827341295 0.1769641621
0.9255235683 -0.8159966846 0.9046798712
0.8651085951 0.6211325108 -0.6507562975
0.5419404470 0.8203455241 0.0038000692
-0.9685738767 0.8728450386 -0.6917583392
0.9530544402 -0.2961787333 0.0386843767
-0.7349400293 0.8871722959 0.3250975645
0.5859371717 0.3145400984 -0.7596387446
-0.9468339947 0.9916717492 -0.3323159861
-0.3492871949 0.8321305939 0.6313075381
-0.5199360999 0.0156573915 -0.4416611099
0.6100887736 -0.1935818794 0.8280150279
-0.1696219867 0.3076698278 -0.6579586418
-0.6505714813 0.8287982237 0.3823371938
0.3970879884 -0.2402926098 0.3751369534
-0.7393022919 0.3867036592 0.4132702307
-0.9620954145 0.7462617452 -0.1909389508
-0.2250208773 0.9586773296 0.0300519153
0.8066576185 0.7259211133 0.1053958233
0.0251770203 -0.2062839130 -0.2593762430
-0.7002180316 0.1224622411 -0.9327191358
-0.0131937647 0.0302682802 0.4882233550
-0.8925271034 0.9698775480 0.9034304274
-0.0655770191 -0.4507734680 -0.4864172266
0.1463347275 -0.0149456496 -0.9617489965
-0.4447243115 -0.8956327399 0.3397684387
0.6329550043 -0.6301910003 -0.9255334647
-0.4457224378 -0.0317933865 0.8901049893
0.7392939814 0.1855336056 0.0805265685
0.5039651920 0.0413873496 0.4789526047
-0.9091159602 0.9598349648 0.2804484598
0.5507873612 0.0832584899 0.7108338179
0.4979590268 0.4174618993 -0.6253062727
-0.4926180715 -0.7253857901 0.6369200252
0.6279561370 -0.9378037488 0.2410429667
-0.6282538508 0.7839915798 0.2984929578
0.9310971355 -0.7159877955 -0.7585123117
0.8574392464 -0.3658903133 0.7454103891
0.9465278148 0.6190770209 0.5598288874
-0.4784058329 0.0800024945 -0.0098602567
0.0324872125 0.3183213229 -0.9089762237
0.3005186769 -0.9697381649 0.4082464276
0.4145201869 0.2937152235 0.4107379443
-0.0229714067 0.2991248464 0.0849037471
0.4152342186 0.6897824978 -0.8317768448
-0.6039034902 0.1897212297 -0.8469276850
-0.7912377325 0.4149330484 0.9677480014
-0.1901938192 -0.1279284112 -0.8479470482
-0.4089832393 0.4458822781 0.6000217898
0.7835181156 0.1272574403 0.8272680296
-0.6382372516 -0.0906884349 -0.9743290684
-0.3066697552 -0.4413820954 -0.6949156086
-0.6959141077 -0.1686418865 -0.5614566154
-0.0045326394 0.0888060133 0.0551205118
0.0936191807 -0.2246542575 0.4841914871
-0.0326954379 0.0212459766 -0.7534785693
-0.6857749914 0.1657705408 0.6830174766
-0.2158939647 -0.1501640601 0.9413580019
-0.3658001650 -0.6633244275 -0.1761166367
-0.5424965491 -0.5954574229 -0.7718237662
-0.8041681562 -0.1150785341 0.3708685969
0.1751360132 0.9082674505 0.7234520665
0.0255323679 0.9455494595 -0.9192375449
-0.8449665687 -0.5017877620 -0.0819610139
-0.3433269243 0.7660381987 -0.9872067154
0.2573395291 -0.3509362221 -0.7417744318
-0.9138460798 0.8173436606 -0.4170252821
0.4720146403 -0.3638627395 0.8688354518
0.3215173385 0.1310563067 0.8760095785
0.3116136422 0.3781341296 -0.3100446068
0.8847321973 -0.2189354222 0.7407650399
0.3391393961 0.1550096523 0.9652408160
-0.5060307165 -0.6181058633 -0.3175119911
0.4334994482 -0.5765402120 0.4219499408
0.6985694058 -0.9060739179 0.0367424551
0.2236348465 -0.7137094876 0.2497535708
-0.2846993162 -0.9698377966 0.1540885293
-0.7391636382 -0.0371491136 -0.1349159660
0.7029790833 0.5763373492 -0.5103787462
0.7884176388 0.7847602338 0.0965026542
-0.3550869988 0.9552533638 0.0255378623
-0.6974173589 0.2936802846 0.9561319756
0.4417686695 -0.2279494166 -0.8919424171
-0.0726479029 -0.2407187585 -0.9274162297
0.3890708841 0.7482448540 0.4762907498
-0.4453028786 0.8836390151 -0.0768128960
0.0291886360 -0.7835626565 -0.3609882767
0.0793702328 0.4327894902 -0.0937571152
0.8134518037 -0.6824791717 -0.4679578180
0.0033268784 -0.2833264394 0.2403809343
0.7372026705 -0.5911335929 0.4093262598
-0.3784414906 -0.6853967870 0.6939212850
0.8486084866 -0.6346699674 -0.2394896010
-0.4998331162 -0.5891866303 -0.9110041548
-0.2556179792 -0.0160293975 -0.6866913245
0.7474933484 -0.9256566877 0.6756830268
-0.3601886104 0.5193051610 -0.6985261969
-0.7067744223 -0.5318576552 -0.5841883971
-0.9987377281 -0.4031469270 0.5543094537
-0.1089663720 -0.8100619501 0.3433330095
0.5452184556 -0.8687138041 0.1675379533
0.4958376165 0.8751669847 0.9567074150
0.9637859785 -0.6446153066 -0.7102332369
0.3902635635 0.4632796760 -0.2020922113
0.0233127824 0.6946751110 -0.6525859365
-0.1483381174 0.8802740752 -0.1106980685
0.5339073047 -0.5084843757 0.6775851570
-0.7411856374 -0.6382495639 0.1756565784
0.9201065057 0.6222471191 -0.7448044391
0.0255741464 0.0524685498 -0.9202873619
-0.8861482450 0.5068881561 0.1276847964
0.6239717133 0.1889032144 -0.1659705738
0.7027437847 -0.2591144748 0.0119279411
-0.2388314413 -0.4999719703 0.5855281995
-0.9161684861 0.5515960555 -0.0294668241
-0.5811681287 0.2199203331 -0.0174226286
-0.9588756676 0.9805599751 -0.1704073391
-0.7159682678 0.2103801961 -0.3240276536
0.2079004062 0.9527406831 0.4532257088
-0.3666285199 0.3272352499 0.0069758165
0.1920349914 -0.9551306506 0.4062155434
-0.1429457712 -0.4982657104 -0.3625012420
0.0578004289 0.3810115822 -0.0078777919
0.9810792868 0.4172035099 0.4135866841
0.4958197852 -0.1182173939 0.0867632451
-0.5393785431 -0.8882714738 -0.3849367073
-0.2043902343 -0.7603763065 -0.5958015688
-0.1415829383 0.7949253299 0.0887591931
0.0296382079 -0.5412152888 -0.1060717551
-0.2112031736 0.3712651066 -0.9506021123
0.5346847382 -0.6086221336 0.0824935751
0.3668965395 0.8799986097 -0.6589848224
-0.6605027530 0.3698073020 -0.7111181894
-0.4554778298 -0.5104952028 0.3315718011
0.7965225643 -0.0364741128 0.3820069898
0.9565265096 -0.6358950608 0.9245483458
-0.9439247287 0.5205553805 0.8388293253
0.5092019767 0.4969133729 0.5807883457
0.0200873729 0.4822712212 -0.7506817372
0.9050692371 -0.1979404001 0.2943002865
-0.9184247280 -0.5375195071 -0.0931437795
-0.2508187355 -0.0265950359 0.4835297173
0.3257756511 0.3369507419 0.8326376514
0.2715145221 -0.6038173451 0.7054680639
-0.0300154150 -0.0211657188 0.2065421875
0.8701123252 -0.6900023178 -0.0755314455
0.0248228661 -0.1469554289 -0.4003575406
-0.1162794469 0.0748589750 0.7375065825
-0.5021109584 0.0172505178 0.0113058074
0.7146009136 0.8527820393 -0.0619475270
-0.3072220953 -0.9974472425 0.3949925646
-0.4131208714 -0.6990227548 0.5915101119
0.4662175791 0.2203025268 0.5459656173
0.0363304123 -0.9096593056 -0.4735225586
0.6119826594 -0.2357620412 -0.6981036330
-0.0298107006 -0.6519708535 0.8473868792
0.2465366798 0.2910337784 -0.6727396652
-0.5766429877 -0.8780771573 -0.2821817769
0.9594481441 0.5946119527 0.9738965361
-0.5034414704 0.4423744554 -0.0838609875
0.0271742904 0.1030140251 0.4246703868
0.8971861413 0.7605681583 -0.9782234544
0.8415660916 -0.5874542327 0.8872926095
0.6312841436 -0.5988650445 0.1559868856
0.2352915880 -0.7797527771 0.0571727374
-0.7365124873 -0.9567540579 0.9760669943
-0.8329903585 0.7121465171 0.5797363219
0.8432665151 0.5662573814 0.4998484443
0.3761633501 -0.1907953033 0.0206617443
0.9785670084 0.5089997883 0.8231646849
0.7813995046 0.2634021156 0.1496842206
-0.6949229601 -0.4925544065 -0.4260701420
-0.4057157965 0.7773648142 -0.7159609014
0.4856752981 -0.7488348591 0.0803740630
0.2006106718 0.6726259366 0.8539561309
-0.5055212195 -0.2821094658 0.1237467802
0.7132506492 -0.4215093443 0.0998123855
0.9122761922 0.4712007500 0.3704347557
0.8093357594 -0.0664533896 -0.5302253015
-0.6040772331 -0.2000995418 0.4256573860
0.8927765067 -0.0425734750 -0.7383231809
-0.7052344461 0.0075725058 0.6215020634
-0.7631333199 -0.2143518286 -0.0590365584
-0.8921045301 0.0904173352 0.0805453663
0.8000025911 0.7145534758 -0.9875954121
0.9645124069 -0.4660400957 -0.0940988912
0.4520817327 -0.0700367729 0.0594820243
0.3255209148 0.2509264662 0.9147830540
-0.2032668806 0.4941632877 0.3781181899
-0.5987780309 -0.5737842946 -0.4004016141
-0.7261145156 0.0571786478 0.8779276505
-0.6921246697 -0.1460118280 0.7993832350
0.5883693815 -0.4731081400 -0.7887859811
0.8583872547 0.9674593812 0.8080008950
-0.8669081550 0.1053671341 -0.5876161834
-0.1947935380 0.5440101586 -0.2017456940
-0.9208734596 0.0123130159 -0.4804086050
0.6978419005 -0.5405241229 -0.2864738777
0.9097808829 0.3128296165 -0.1607397707
0.3831310749 -0.7325473029 0.1262966219
0.6276593663 -0.7794442092 0.8520506510
-0.8706600377 0.2130298970 -0.4014962519
-0.2046349081 0.3004754314 0.7984826615
0.8105402553 -0.9399491209 0.6002114410
-0.5998892884 0.2880284886 -0.8749968890
-0.3740797971 0.9792081039 0.9612746987
0.1396145613 0.8086795623 0.8360609484
-0.1738465744 -0.8810714068 -0.8541235321
0.9417060158 0.9186555262 0.2087017578
-0.4079806858 -0.2094001016 -0.0682993489
-0.3318857140 -0.9159097638 -0.0774680978
-0.9632752884 0.9475985475 0.3522630513
-0.4552702671 0.8895264568 -0.9197662947
-0.7380952656 -0.8425103408 0.6436205940
-0.5958244610 -0.1850020840 0.4256953837
0.1470325288 0.1952801235 -0.5581049084
-0.4483236248 -0.4913964466 0.4010829429
-0.3408334289 -0.6277356962 -0.4207071482
-0.5317730428 -0.5589947304 0.4045014872
0.8320264462 -0.5858004948 -0.3859458734
0.6022763244 0.8201444199 -0.8786799352
0.5475299604 0.0963910990 0.5309527186
0.0192550993 -0.1801050573 0.8770780479
-0.1127019515 -0.5188912149 0.9468653880
0.2772735671 0.9338283848 0.5495038080
-0.2708605138 -0.6890515284 0.6526384523
0.6548377458 -0.5082003073 0.7513879742
-0.6775152623 0.4281917607 0.8772512057
-0.9605463083 0.3919384926 0.6540603849
-0.2438225312 -0.9532986092 0.8958007163
0.0652171671 0.0820629031 -0.8318124024
0.8578432294 0.6942497417 0.1017923364
-0.3128006722 -0.0947513399 0.6986082920
-0.4713486442 0.7754117437 0.1337511393
-0.1804133399 0.7671580441 0.6035763636
0.1647242374 0.2977480646 0.9353407853
0.5437843094 0.3072270486 -0.2984249595
-0.7241076237 -0.6542885463 -0.4482020292
-0.2237874589 0.8050452662 0.2667123493
-0.0125843385 0.4807230335 0.3295539864
-0.5772293957 0.1866406021 -0.0085642855
-0.3013159957 0.8944367735 -0.9998951628
0.7645745075 -0.2982192505 0.8063481131
-0.0094199678 -0.0668440304 -0.2314531364
-0.5866799962 0.8068039422 -0.7719674320
0.3056896778 -0.6940557586 0.5535141737
0.3026823966 0.7832642791 0.4743367794
0.2385150162 -0.5705417041 -0.3919234961
-0.9387155928 0.0575786381 0.0895930997
0.1151926265 0.1130867169 0.7865132743
-0.0081042011 0.5421335911 -0.8257744526
0.6913183946 -0.0431574680 -0.4300243523
0.3932702637 0.8479891005 -0.2228592657
0.9336163489 -0.0222934158 -0.5535321009
0.6139494610 -0.7233497605 -0.7366418295
-0.2760262961 -0.8091958197 -0.7619732827
-0.5443160083 -0.5705327372 0.0012373751
-0.9127128521 0.3231835625 0.7249940216
-0.2457857677 -0.1438550896 0.6384111290
0.8881508663 0.1250159410 -0.4913234072
-0.2453628852 0.2009235639 0.2907162362
-0.0595258166 0.8320601402 0.6684245234
-0.7820472139 -0.5366103101 -0.7197215209
-0.0141781126 0.2285549574 0.7991891537
0.6938268591 -0.3445412929 0.7411175058
-0.8992408472 -0.3576205271 0.4181753773
-0.6866439230 -0.5662813670 0.2840589745
0.7036904017 -0.5902886987 -0.6876742073
0.4714432928 -0.4530958035 0.0295202132
-0.7210977129 0.6249860680 0.5835006934
-0.4544093228 -0.7758341564 0.9506739715
-0.4611601983 -0.6704732549 0.3392966039
-0.0080112102 0.1650647521 0.9620056964
0.3559647042 -0.3964343696 -0.5870118366
-0.4045774060 -0.3242251113 0.6708769400
0.6166267806 0.4097635684 0.0985617342
-0.2016921960 0.4432261854 -0.7646163342
-0.9421147086 0.4869667892 0.5676972945
-0.3610494686 0.9087430497 0.1032556747
0.2087566040 0.0493516826 -0.3325767982
-0.7952570862 0.7028371834 -0.6800577484
0.0153914174 0.9782576679 -0.3584914608
-0.3716408349 -0.0281495250 -0.4666682972
0.6136842940 0.1196977094 -0.5756269929
0.6241407406 -0.0314311863 -0.4330262868
0.6855672266 -0.9110133783 -0.2854897553
0.7859902455 0.3504432264 0.1090009931
0.9420370014 -0.7282753430 -0.2703153750
-0.9676118097 -0.6655592822 0.3587710986
0.3185263915 -0.4778236402 0.5528268053
0.5919672877 -0.1993202830 0.4189603517
-0.8894392298 -0.4596463689 -0.5518557551
0.7956245515 0.8958801035 0.1668750235
0.7391704289 0.6004118351 -0.7877410948
-0.0060104473 -0.1507490187 -0.4240074789
0.3186762224 0.6221327281 0.6645963854
-0.2939090372 0.3538400039 -0.3177918714
-0.1089705278 0.9641944239 0.3136540277
-0.3711885986 -0.9255122269 -0.4787220675
0.9678097824 0.9261617931 -0.2705381599
0.0601636508 -0.8453979322 -0.0924690910
-0.5600864051 -0.2511889035 -0.0628469594
0.0605265461 0.1304438808 -0.5909920636
0.3494186220 -0.5537560089 -0.2514034681
0.9585566646 -0.9384358480 -0.8206664790
0.6060694352 -0.0085378719 0.7157903171
-0.8906077588 -0.2600379807 -0.7930484897
-0.7619785170 0.6292833897 -0.9707618494
-0.2179455079 0.8944401898 -0.4884191788
0.3559187695 0.1902265464 0.0590669735
0.2571018376 -0.1312997775 0.5578225489
-0.5097792356 -0.7459130252 0.2516865803
0.7812416416 0.1044040682 -0.1189982323
-0.5827567368 -0.7861100876 -0.9736574191
-0.2131427245 -0.5247709133 0.7031149133
-0.2040602254 -0.9234903076 -0.3426433032
0.5692186283 -0.7620762090 -0.1441192667
0.5163467945 0.1781119795 0.5084586941
0.0052337337 -0.7655357510 -0.8301207328
-0.6201672666 -0.1332566940 0.9365731263
-0.4268284469 -0.5817300843 -0.4128098365
0.4288308676 0.4915460648 -0.4234007260
0.4927881262 -0.9155437026 -0.6362147397
0.6656984171 0.4936310232 -0.5724099872
0.0570301508 0.4404688233 -0.8732053410
-0.0421154463 0.3927423907 -0.9026281197
0.2606343446 0.4376504428 -0.9957679243
-0.1906055839 -0.1583321439 0.1766072253
0.0398768512 0.2933452063 0.0243637104
-0.2346079102 -0.0367152361 -0.6710102244
-0.3862407058 0.8583822932 0.0470664260
-0.6349270191 0.9215243258 -0.7453887693
0.4481734503 -0.7125346866 0.6282714175
0.1845940361 -0.6825827743 0.0213489816
0.7281481138 0.6418339163 0.3206734815
-0.9283386151 0.2626263508 -0.2867984455
-0.0232855312 -0.0090608262 0.2088578188
-0.3949070063 0.1318540650 0.1454764897
0.8662968362 0.4706972497 0.5297185440
-0.3423532985 -0.4457489540 0.3336471936
-0.7483550977 0.5211181534 -0.2936363338
-0.6749757086 0.8742275573 0.4486293576
-0.6474553058 0.9016032856 0.0243860666
0.4695042377 -0.0032841136 0.3378236690
-0.8772035242 -0.3768046516 -0.7889505841
0.8341749211 -0.4404188240 0.8653419015
-0.9204879153 -0.2525808490 -0.4646765711
-0.1417068983 0.1201060718 -0.1486294208
0.3025193637 0.6313165734 0.7232978689
-0.5973875192 0.3009619971 0.6326488460
-0.1797405018 -0.4347124350 0.3900761840
-0.3791806747 0.4595035291 0.9315490738
-0.3798363467 0.0575583369 0.8674253288
-0.4138858031 0.8142072987 -0.1001904109
0.7098873780 0.6595297824 -0.5095717041
-0.5927828715 -0.2514519230 -0.5674598941
-0.3878794404 -0.9872038234 0.9807758701
0.2314663002 0.1208532109 0.3001499043
-0.2230323472 -0.0704991619 -0.3882628755
0.3637638144 0.0902028413 0.9105385128
-0.0480383419 -0.3239497447 0.1390498323
-0.4923431579 -0.5991236747 -0.4049542512
-0.6511302303 -0.5624872527 0.3391784811
0.8971082231 -0.9404284596 0.2738583138
0.3393927961 0.5304190690 0.3630482885
-0.9417276555 0.5257284444 -0.7597983731
0.8759342293 0.5439314000 -0.2389959447
0.1108272461 -0.0629021046 -0.0302206111
0.6631875456 -0.3348651730 0.6412540592
-0.2376428045 -0.5706289916 -0.2586653602
-0.5358866124 0.3740342432 -0.5347216800
-0.7283100772 -0.6627262903 0.8597056488
0.0151647333 0.1887428561 -0.1088120935
0.8692134358 0.2118447649 0.7267039982
0.0155359265 0.6895495281 0.3978572800
-0.4588536302 0.1877480893 -0.5547403850
-0.5960233384 -0.9782111568 0.9921417497
0.9449463635 -0.9546847765 -0.9676343225
0.7962017178 0.8206811939 -0.6677052395
0.8027357604 0.7610864026 -0.5108666877
0.0063859445 0.6537886610 -0.6048282104
-0.5867331677 -0.9569684182 0.0674752446
-0.5915840211 0.5938826122 -0.1026479591
0.7700088083 -0.9814948917 0.5163139527
-0.6509158698 0.6763809559 -0.1438408458
0.4315586116 -0.5380036797 0.6036980196
-0.1787013195 -0.8623605732 0.9315443893
0.2201709420 0.7251019352 0.0906472395
0.5487880369 0.2673239771 -0.7260401117
-0.8183993575 0.6520804859 -0.9837233534
0.6285318041 -0.7663113403 -0.5632719496
-0.5259022474 0.6670970768 0.7170713907
0.2883978544 0.3363896895 0.7502713578
0.8524454709 0.3813407211 -0.2919498811
-0.1748466144 0.6305446866 -0.3708429463
-0.4514413221 -0.1445019428 0.7286849071
0.2181647609 -0.9960468019 -0.7830038470
0.9556271950 -0.9197109964 -0.1493485468
-0.8073709663 0.2505660233 -0.7332252836
0.7252603668 0.8629912094 -0.7479228748
-0.2624215215 0.0211611317 0.0418819385
0.4052077061 -0.2307871133 0.6616583093
-0.3962725023 0.1297902812 0.0849244122
-0.4509348404 -0.6497149596 -0.1956136928
-0.7698143792 -0.0626974892 0.8156674454
-0.6023361038 -0.8076935381 0.6749869305
0.2289679036 -0.9483539267 0.7250766803
-0.0362698041 0.9333253576 0.4511621182
0.3832101058 -0.9486870150 -0.9413471711
-0.0054927895 -0.9029291478 0.7366111930
0.0802594784 -0.7913631164 0.8858870980
-0.9294059149 0.6803487306 -0.3570675613
-0.0517181632 -0.2845775589 -0.6399390795
-0.9224238008 0.8581524748 -0.7197382765
-0.7602667701 0.8441330582 0.3213881278
-0.1697854690 0.7450305156 0.6476250798
-0.5530329980 0.5583225864 -0.8269350001
0.9241024367 -0.1977787919 0.7084412350
-0.2874186930 0.3357377326 -0.3649138131
-0.1108297201 -0.6357345493 0.5642103072
-0.4850442425 0.5950549872 -0.1788077272
-0.1780737191 -0.3186503277 0.4460714874
-0.7379811164 -0.7227588651 -0.8622461146
0.2726324843 0.8065672893 0.9167921400
0.1247951607 -0.7074949079 0.9164509879
-0.4146322700 0.9447147826 0.1875495511
0.8085259406 -0.7267751213 0.7181128895
-0.1813282674 -0.9535681101 0.4361397018
0.4380496962 0.7172646303 0.0446991468
-0.6703647248 -0.1261832497 0.1999254349
-0.4991199054 0.9219277530 -0.0729978777
-0.0647246912 -0.8140936598 0.2082339586
-0.4933934034 0.2625976485 0.9600568037
0.6688717203 -0.0072855539 -0.7112955455
0.8483508370 -0.1893463923 0.9241108310
-0.7637695627 -0.1568668893 0.2893029496
-0.0736148587 -0.2438643867 -0.2552056732
-0.4595062419 0.8240260221 -0.5859967010
-0.4581849847 -0.8951331192 0.5253997646
0.6941056876 0.9850964440 0.5139977355
0.4311532717 -0.9132145268 0.8584121232
0.7045658643 -0.6293307684 0.7805797572
-0.6407245551 0.6891790627 -0.3083417060
-0.6079793861 0.7358494021 -0.4743096104
-0.7434485018 0.5104307003 0.7253434237
0.0618298742 -0.8815059256 -0.7019046561
-0.8355557568 0.7183456265 0.8292215747
-0.9105203444 -0.1456582773 -0.5412500384
0.4632292637 0.3328174098 -0.1395695090
-0.2958322206 0.8588387886 -0.0877355296
-0.4494893419 -0.5783594808 -0.4512706035
-0.4628382683 -0.8577348581 -0.1504464173
-0.6393220285 -0.8462009036 0.0901707404
0.9197250222 0.1523930797 -0.9573250734
0.7569763602 -0.3524656278 0.6576736908
-0.0438187952 -0.5731150594 0.3422165203
-0.6969957944 -0.0762311128 -0.3356907945
-0.9566291600 0.3173025616 0.7229695316
-0.3617903083 0.7596776585 -0.8435663319
0.5267449397 0.4611797332 0.5946460863
0.0166637714 0.7877010662 0.3726174721
0.5382935592 0.8257774097 0.8756136579
-0.2340264600 -0.4693511957 -0.3546474120
-0.7213269703 0.7272639334 -0.7863332224
-0.1660317147 -0.8604368151 0.2063393261
-0.3520904222 0.7355892344 0.5020414428
-0.2598177348 0.0283619394 0.8327694478
-0.8008673882 -0.7102412688 0.5635161814
0.7405367376 -0.8243220276 -0.3389877077
-0.2702604713 -0.0908650481 -0.9095992508
0.9383915543 0.3940605786 0.8396322705
0.3303994478 0.1777479622 0.5706900302
0.9647332136 -0.9532318914 -0.8354742853
-0.0743979141 -0.7078298198 0.5101516054
0.0284679210 -0.9972391758 0.3060733689
-0.7645849150 -0.0478406976 -0.7980222875
0.1513544621 0.4905774887 0.0529667295
0.5948566795 -0.1647226529 -0.9739904628
-0.5465290303 0.7082263974 -0.8299902798
-0.8158933040 0.6002766049 -0.3351697189
0.8013160642 -0.6466300482 0.0104556158
-0.4047830262 0.4710256943 -0.4932926743
-0.7217410346 -0.5388727874 0.5228991533
-0.5498114665 0.1303642115 -0.8421539698
0.1999128075 -0.9239523729 0.1669345973
-0.1881275941 0.2792684496 0.0464678482
-0.0173597486 0.1190254373 -0.8768839762
0.0279295216 -0.0264813475 -0.0908417382
0.4550320131 0.8361358095 -0.0464470795
0.1679411657 -0.6095006559 -0.8731303985
0.1771517806 0.3932004500 -0.4437132388
-0.7470623136 0.4078844450 -0.2137729154
0.9124150811 0.0228997746 -0.5353334744
0.6729256511 -0.1298517794 0.4945346678
-0.0300577519 0.7118848913 0.7656939172
-0.7650382731 0.9765585618 0.9308891765
-0.2001553950 -0.4070585745 0.8617885474
-0.5775194938 -0.2666501672 0.6313265002
0.7755252202 -0.2187665357 0.0100671734
-0.1155732596 -0.7388634658 -0.0475578145
-0.6694030574 0.2359013609 -0.7564509368
-0.2258295583 -0.5427708161 -0.1157701955
-0.4792522163 0.3674651530 -0.5207237185
0.2288823875 0.3083253762 0.6397102755
0.9291448078 -0.4648612537 -0.6814805563
0.9100951144 0.4156733454 -0.9149054877
0.4492149062 0.4410316867 -0.6634444262
0.5164836965 0.2742275934 0.0407358162
-0.5899454384 0.3593680165 0.5041230295
0.6981091605 -0.7137482236 -0.6752629853
0.5295346223 -0.1285281170 0.5457100735
0.4209463388 0.1910080824 -0.1882810848
-0.6982184161 0.6299602307 -0.6850020390
-0.3093253789 -0.9766736983 -0.0292406241
-0.7090893833 -0.5750596160 -0.2611965397
-0.0481931328 -0.8897217947 -0.3759918343
-0.1106872261 0.4594726032 -0.3357944452
0.0414711944 0.0206366480 0.7090817452
-0.8883737902 0.4535550738 0.2829944034
0.6045908502 -0.1492079181 -0.4521002525
-0.5864141594 0.1483659545 -0.0756308894
0.1268342247 0.9755439620 0.0820481354
-0.3468295939 -0.2781550884 -0.8167536266
0.3842685771 0.1899531068 -0.0822558664
0.1227646849 -0.8550836279 0.5243148775
-0.4136947938 0.1377483778 -0.1383514515
-0.0694053939 0.9483275384 -0.5620221433
-0.5945305316 -0.1027035228 -0.8980529184
-0.5873001687 -0.1598885343 0.9240084833
-0.2749552847 0.9661986107 -0.4641787512
-0.1778648182 0.4710805362 -0.9740594659
0.8642590615 0.7321573868 -0.0391804026
0.8356167206 -0.3327814711 -0.1706387195
-0.0574224754 0.0602085823 0.8010982209
-0.7158192310 -0.5411709554 -0.8330832913
-0.5992466471 -0.8746671455 0.8839710645
0.6289418409 0.7331750500 0.5182300483
-0.2309552172 -0.4170238376 -0.4231006457
-0.7897467943 -0.6454502802 0.6753574404
-0.4874377654 0.4407425226 -0.6182090657
0.5586317945 -0.1288170270 -0.7637172823
0.3153771589 0.8336901343 -0.0434139199
0.4618874458 0.0882216981 -0.9150420656
0.6062855234 -0.9873285252 -0.5759995441
0.1138067711 -0.5581617158 -0.7986173725
0.2719762957 0.3679440541 -0.2177738691
-0.5662819954 0.8813010648 0.2958418793
0.6893473551 0.8369051550 -0.9641829029
0.8014821312 0.5392407678 -0.4586341713
-0.8644194157 0.0785461221 0.3963860565
0.2096324482 -0.2331768453 -0.6880190881
-0.2411422250 0.8498145775 0.5066423255
0.6831440374 0.6660224369 0.7688162271
0.4476676262 -0.8377936200 -0.0714706034
-0.7505023195 0.0099341732 0.9308483562
0.7174660934 -0.6190869282 -0.1180097587
-0.4928949188 -0.6569159387 -0.3449496147
0.3959948153 -0.6097565843 0.1868018971
-0.2432508825 -0.8982559830 -0.2621977175
-0.0103335950 -0.4017225905 -0.3542050907
-0.2477970826 -0.3161836214 -0.1722867221
-0.1034606802 -0.3030095004 -0.2632883432
0.1332896819 -0.1742379409 -0.7881183909
0.1469402727 0.2552778771 -0.2923509803
-0.2386623470 0.7145285086 0.9816494143
-0.4584291521 -0.3745715725 -0.5988040859
0.2755989390 -0.6844825456 0.9351370081
-0.2404531007 0.4866333082 0.6401959515
0.4840558730 0.3307350450 -0.0975439420
-0.6484944086 -0.2444038615 -0.5453738051
0.5624496893 0.4418806063 0.2491232723
-0.8830042165 -0.7791226569 -0.7968123101
-0.9494498721 0.6273979172 -0.5523202568
-0.3628728236 0.1891369827 -0.9905509585
0.6392722879 -0.6421765453 0.7818109552
-0.1927999824 -0.1808746884 0.0690534652
0.3831279371 -0.2750171976 -0.9684558778
0.0866374131 0.2495908582 -0.9437632410
0.8583097169 -0.4904037030 -0.1328884169
0.7333863486 0.7480588376 -0.3534200395
0.3886558036 0.5373472164 -0.6093258915
0.2470980678 -0.0784373446 0.5800337965
-0.8376159548 -0.9071125026 -0.0308126196
-0.6145287419 -0.6367603501 -0.1644811639
-0.6468472666 0.3437858289 0.0901093125
-0.4653358825 0.2488701829 0.5242274984
-0.4773355141 -0.9510322924 -0.8646251789
-0.4494762508 0.9100549704 0.8160768136
-0.1310219804 -0.7143267059 0.7717550628
0.6733464580 0.2072906433 -0.4393725227
0.6120225061 0.9805052557 -0.8254884877
0.1406615736 -0.8377347947 -0.6456402523
0.4463305033 0.5009590995 0.3567570777
0.8808148493 -0.0464251075 -0.9784698143
-0.8053765085 -0.9586203970 0.8537547589
0.1423861133 0.0091847160 0.6727568703
-0.2960623872 0.3414114329 -0.9051477574
0.6556801962 0.9672176555 -0.6153130207
-0.8675435559 0.3891169515 0.9630177172
-0.4281920209 -0.6655497329 -0.4828578500
-0.3817556557 0.6119167312 0.7137839939
