0.6692619113 0.8348699904 0.8395655132
0.5340023602 0.7583507708 -0.6636439248
-0.7968432220 -0.3796273470 -0.9383946948
-0.9057149718 0.5300719584 -0.6307857522
0.7979972691 -0.7315442191 -0.0054318591
0.4724311998 -0.2863189170 0.9177069119
0.2228604567 -0.2193595481 0.2994945989
-0.7557672131 0.1779489004 -0.1670131783
0.3329135335 -0.1478261719 -0.1811311045
-0.4507004750 -0.9400736508 -0.4389576991
0.2309176992 0.4444415962 -0.9450690758
0.4113022475 0.1728791031 0.4258171381
-0.9148534048 -0.0264353126 -0.3666463219
0.2603500174 0.4945557082 0.9944595539
0.9147043739 0.7646086650 0.9264189989
0.9363505693 -0.3558179631 0.9257475385
0.6329541945 0.3022706066 -0.8106909109
0.3913079012 0.4239794531 0.5398015354
-0.3198918962 0.6377846619 0.7643512911
-0.4887747929 0.8369988180 -0.9021179704
-0.8763792560 0.5399468297 0.3768533149
0.8580814430 -0.6604897545 -0.6258503991
-0.7366996575 0.4705365848 0.3484872619
-0.0234370332 -0.0145616515 0.1134844203
-0.3451085341 0.7441222601 -0.7863494964
0.0936656339 0.5398104516 0.2928433267
0.7614204799 -0.2808780928 -0.3710432309
-0.7570630212 -0.3496037695 -0.7189900983
-0.6845001398 -0.8150786845 -0.5182026393
0.9955310528 0.5207464537 -0.4015302107
0.1754888934 0.7813189191 -0.9659418842
0.7119890481 -0.3553353220 -0.4217948611
-0.5488167301 -0.4038758402 -0.8881653416
0.0518288361 0.7097989565 0.4907591872
-0.0550294915 -0.8754158723 0.6405076114
0.0965597349 -0.2552480557 -0.2240121464
-0.5360129958 -0.1190070332 -0.8089592534
0.3900219095 0.5019593362 -0.7783209626
0.5783016544 -0.4865408838 -0.3054500233
0.5670160562 -0.9182521162 0.9711364125
-0.7891666626 0.4237584696 -0.0668032704
-0.4858460929 -0.6734126652 -0.2950335887
-0.1742779197 0.3759677972 -0.1248123986
0.7242946774 0.6183692105 0.5745097770
-0.5291092704 -0.8385537280 -0.1634994114
0.0970406454 -0.3007960815 0.7577355355
-0.2696948949 -0.8850129533 0.3677547560
0.9431164671 0.9795261062 0.2180762980
0.5034488843 0.7696938714 0.2834911064
0.4602222184 -0.2391599610 -0.2650310023
0.0979015206 -0.0178627175 -0.6532090343
-0.9863683006 -0.3939729548 0.6555584548
0.1900303070 -0.1313032398 -0.2895785170
0.4443934186 -0.9376427021 0.2257988960
0.9783139750 -0.6491659076 -0.4053387872
-0.5985840283 0.7058442615 0.4829522084
-0.7635936699 0.3576785973 -0.6450483480
-0.6064611014 0.5452874783 0.7636289943
-0.5893565168 -0.9772301993 -0.3117249482
-0.9480271762 -0.0488687969 -0.7719610420
-0.8703063406 -0.6074913326 0.9016954556
-0.4367634715 -0.1963760030 -0.1122102500
-0.3175780087 -0.7506831255 0.6237948848
0.5411594704 -0.5241646749 -0.7173407266
0.1408336195 0.2923821500 -0.6085506368
0.0970743047 0.9687680677 -0.9400237700
-0.0876240490 -0.6582791979 -0.0207365622
0.6345336307 0.5399730779 -0.6700013296
0.7722441624 0.3223148785 0.4592786660
0.1763348903 -0.2461189384 -0.4329244681
0.5429769846 -0.9118320577 0.6100365373
-0.6427371689 -0.5841218500 0.5413679423
0.5485023934 -0.7270720413 -0.2143050468
0.8925557889 0.9193876978 -0.6737667489
0.5240959510 0.2956291634 -0.5735062374
0.0743638340 -0.4674274717 0.4299471260
-0.3114156104 -0.3843265730 0.4389767425
0.7160513666 0.0155364470 0.2824862863
-0.0168042360 -0.0556704743 0.0485711988
0.4072141203 0.5897878878 -0.0076679978
-0.0741491219 -0.5425621753 0.7238425767
0.5838947001 -0.6210334788 0.0072761007
-0.6841524935 0.2011599874 0.2270662334
-0.8901290684 0.4906298446 0.6528492085
-0.9801183166 -0.0475175493 -0.0713518276
-0.5014138473 0.1021137723 0.9647355258
-0.2339378921 0.6237893161 0.3058279874
-0.0648129690 -0.8107322674 -0.0800985451
-0.2336241220 -0.3141372041 -0.5168900346
0.2204968541 -0.4157422673 0.7646741605
0.3617745787 0.2771973942 -0.8996771455
0.3308758704 0.1151737788 -0.6676147678
-0.6011960423 0.1338926526 -0.7553397600
0.7713928428 0.0475326558 -0.3474140674
-0.3402545973 -0.1260475374 0.8505181391
0.0046930776 -0.9141101407 0.1301578864
0.9117292213 0.1548488054 -0.2567025161
0.4200050228 -0.8589270039 -0.8863965956
-0.6301928893 0.9067575310 -0.5919791768
-0.1933471805 0.6000626298 0.1401936836
-0.0189191351 0.6023627871 -0.4486540387
-0.8865255870 -0.4665985611 -0.1302582871
-0.3282388362 0.4294085724 0.5572972450
0.1446052140 0.8375476638 -0.9246165443
-0.8075924920 0.4177538144 -0.6018365072
-0.3498095582 0.5798454027 -0.3375032256
0.5671691698 0.8836942130 0.0895571081
0.6611853263 0.2125593405 0.4790660935
0.0493764174 0.3568383556 0.5660102587
0.8926572253 0.7854858919 -0.5675248088
-0.9865427717 -0.8943864604 -0.8834359488
0.0448968879 0.9421780833 -0.4607851647
-0.2623640296 -0.6293855103 0.2207443769
0.9306432918 0.9407527157 -0.7783120084
0.8861950986 0.2068426590 0.9818708080
-0.8596890204 0.3518213877 -0.3714296807
-0.1547744254 0.3320029103 -0.9230084787
0.2233333060 -0.7477728700 -0.1433024985
-0.2394359166 0.2236008044 -0.9539697504
0.9771530412 0.0897481764 -0.7405693665
-0.8835152697 0.2564897346 -0.9637037475
-0.9453717322 0.2273846870 -0.4525052877
0.1168328263 0.6549569802 -0.2227211061
-0.6603386866 0.9231450520 -0.3428695150
-0.0980057700 -0.6191184644 0.2015449803
-0.6109441002 -0.5004663683 0.2148126106
-0.1362428668 0.1026848716 -0.6455635981
-0.9001786327 -0.1161351518 -0.5004571578
0.8962349909 0.5422318742 -0.3316608978
0.9641915671 -0.8897510160 0.4604221826
-0.1399613407 0.5343304541 0.4692351714
0.9142655028 -0.8684623653 0.9447436061
-0.4146636861 0.5763909333 0.4399168023
-0.0895117393 -0.5928020414 0.5803136195
0.2661090776 0.8421331769 -0.7432499595
-0.5381576930 -0.3846051620 0.2008713031
-0.3285861789 -0.6394244501 -0.0010525989
-0.8464462084 -0.1574429812 0.0365697049
0.0439664185 -0.5482840629 -0.6462731989
-0.4952360954 0.0841320630 -0.0936933382
-0.6223713891 -0.0093805140 0.1373031259
0.1132509096 -0.1078487520 -0.3416335873
-0.2468299975 -0.8511902561 0.6711548707
-0.9030657881 -0.0301839146 0.4943682848
0.6512063082 0.3799613721 -0.1697339124
-0.5201843910 -0.8594736187 -0.7912900700
0.4997508634 0.3139206052 0.0266951213
0.6788886283 -0.9806917759 0.9246509719
0.2606903702 0.2167404860 0.6466193323
0.5393125118 -0.0242432582 0.4341731835
0.0754742835 0.4883800379 -0.9550363988
-0.8985205906 -0.2546972464 0.7209535331
-0.4059205818 -0.3831046940 -0.9284078482
0.9886208316 0.6219755938 -0.6072774243
0.5753560722 -0.5924652301 -0.0342257545
0.3607813890 -0.7903724605 0.6910468353
0.1912985018 -0.4610847496 0.2278084626
0.2269486511 -0.3699897263 0.5216953268
-0.7978016695 0.1533699695 -0.1506437330
0.3729925656 -0.5721724493 0.7020441314
0.6862631536 -0.2848931443 -0.7814521620
0.6093409825 0.0411427381 -0.2783025028
-0.8059255281 0.2508573629 0.2412845597
-0.2297200359 -0.4761963753 -0.6413538999
0.0775275400 -0.5643430771 -0.0930532095
0.4816181098 -0.5033036798 0.9930915367
-0.2498763750 0.7450101605 -0.6384446688
-0.8848188942 0.2521132830 -0.4849721591
-0.0465609792 0.4106848485 0.2567321415
-0.1053929657 -0.9601023801 -0.6225523397
0.0735193492 -0.4083355761 0.0119952183
0.0223700787 -0.4786363917 -0.0701716239
0.6236312903 -0.4027624380 0.0749198714
-0.2920350611 0.5743978794 -0.1266553533
0.5951013277 -0.2980092652 0.1724351127
0.6931099909 -0.3272499369 -0.8292655569
0.8164809988 0.8635501255 -0.1107108794
-0.0863517287 -0.1105580754 -0.2045264420
0.9931918465 0.7183866359 -0.6423214638
0.2788975336 -0.7554778640 -0.4274175669
-0.9212794740 -0.8269053681 0.5167383225
0.7704622590 -0.6600361067 -0.5288981906
-0.7429471135 -0.2704607771 0.3279307004
-0.8041104291 -0.3461773630 0.7143773161
0.3684908097 -0.4402832146 -0.7345362208
-0.6696470485 0.2938818935 0.8955934154
-0.9177554453 0.2798102638 -0.5689699854
-0.7640561089 -0.4706744841 0.0954188711
0.4444242008 0.9043172885 -0.6241279101
0.7864434935 -0.4306894057 -0.5319512012
-0.5600430757 0.7701881361 -0.1531451136
-0.3227513317 0.2618432775 0.4083662262
-0.7688834723 -0.8908803410 -0.3168734503
0.6678785273 -0.2479911382 -0.0257892431
-0.2405841103 0.6027862665 0.8516013282
0.6503892599 -0.0323937657 0.0907885042
-0.1714497710 -0.0676625323 0.6610657614
-0.1481982681 -0.1808456815 0.9606807563
0.1290348751 0.6640857543 0.3765231874
0.9325333563 0.3642905834 0.9636384632
0.1119635652 0.8100477980 -0.7664637393
0.2927441323 -0.5397750984 0.2907082026
-0.2166737170 -0.9591003195 0.4355588039
0.4934510187 0.4714467182 0.1015128000
0.6519879739 0.6112994386 0.1674086171
0.4771975183 -0.7580750756 0.7578134596
-0.5270453630 -0.2222211711 0.5758772674
-0.2992386086 -0.8077488166 0.6995743257
-0.8687039891 -0.1427860031 0.4575435107
-0.5868003046 0.3210682583 -0.2951215800
0.4779768498 -0.7021842807 0.5364140947
-0.9168449420 -0.7626304881 0.5313254383
0.1361933637 -0.8902792210 -0.9264052529
-0.1922503076 -0.5036035056 -0.7786054995
-0.9789946211 -0.1159194457 -0.1964405229
0.9363556023 -0.5675792353 0.2068773101
0.4241469729 -0.7107093451 0.3436986092
0.2276037521 0.5051536848 0.6719605906
0.7070543397 -0.2117331339 0.2842129505
0.7626610739 0.5825778003 -0.4116729704
0.5782904706 -0.3617449488 0.2612209465
0.0500284597 0.5066908097 0.3894046652
-0.2949815792 -0.9755936195 -0.1570459254
-0.3440525908 -0.7667014140 0.8127280567
0.8885917348 0.6699423514 0.1173536759
0.7865690898 -0.7113418298 -0.1656829032
0.3193591649 0.8972090540 -0.9783792430
-0.6347768612 -0.1897932013 -0.9895416082
-0.4745168517 -0.4988307990 0.8940135610
-0.9407031968 0.7780859251 -0.8259574641
-0.6362416949 0.0483739553 0.2019738770
-0.3932811875 0.1883322458 -0.0264341186
-0.6366665908 -0.1511204610 -0.9041281306
0.8037786043 0.6996388477 0.6429771296
-0.8945834620 0.5022719171 -0.0642558912
-0.5732037717 -0.7557546020 0.6891765595
0.9838638954 -0.9159764690 0.1123971618
0.9998122329 0.7974198527 0.6553372364
-0.4291566083 -0.9653295797 -0.9062468918
-0.9956842611 0.7752307327 -0.5519074243
0.1247889338 -0.4553863836 0.1005899378
0.7352186600 0.0772346434 0.4912189633
-0.5835460178 -0.6629414847 0.6357478196
-0.2456946731 -0.9227204621 0.8398313662
-0.0528415007 -0.3824867301 -0.3872545078
0.0233825608 -0.6213892798 0.7435607216
0.3077424222 -0.2881045060 0.9493530871
0.4622606902 0.3100964994 0.8638173183
0.4040764993 -0.8635815433 0.2914237944
-0.2817115964 -0.9951823371 -0.9018334005
-0.0164052351 0.0768849276 -0.0294944964
0.9658414545 -0.5745156635 -0.9411542046
0.4679653835 -0.4439780285 0.2289960618
0.7473975217 -0.4509267173 0.6411770136
0.9367797952 -0.6053908839 -0.9160587175
-0.8858840977 -0.9377487357 0.5011563316
-0.3972647618 0.4146922860 0.1644504401
0.3134625788 0.9434579661 0.3988557654
-0.6961157357 0.0132613306 -0.5679758581
-0.4342449210 0.6053999949 -0.3685703812
-0.0889102142 0.0637152209 0.9044670256
-0.3713586576 0.1498857080 0.0245457921
0.7234838132 0.2351576867 0.6753614772
0.7431342206 -0.2043295882 0.2111827608
0.1724679936 -0.8048679510 0.3952100953
0.5972818757 -0.0463358358 -0.6617989442
0.7583025302 0.0144883171 0.9736837140
-0.1708264078 0.3688215011 0.0875681920
0.8606021096 0.2695904887 0.4572241748
-0.9226357400 -0.4070383644 -0.2596435812
-0.2307713068 0.0456984023 -0.2721870673
-0.6927778747 -0.3616632052 -0.3206093939
0.9833865072 -0.0531565424 -0.2684251151
-0.6706337735 -0.2993096160 -0.3715300030
0.4012285342 -0.4104494576 -0.9515458822
0.2011870364 -0.1597749567 -0.1511454252
0.9591980316 -0.5029841775 0.1212295211
0.0343890339 -0.9204884089 -0.2046646300
0.5191380125 0.9859792927 -0.7421447644
0.4188182734 -0.0364349863 0.5054266670
-0.9215948305 0.1512614675 -0.7723029232
0.6143268968 -0.5044100751 0.8044282915
-0.8834888579 0.0622182692 -0.1199369117
-0.0303683078 -0.7418077174 -0.4979646466
-0.3366338223 0.8797384909 -0.9075614984
0.9813180162 -0.0106413557 0.3812049545
0.6807100638 0.7734464360 0.3116716462
-0.5114648776 -0.1046249304 -0.4551874592
0.8679481396 -0.9351459413 0.3553970904
-0.3298413993 -0.5012375332 -0.5264152342
-0.5915020620 -0.0360413365 0.8767935507
0.5568948204 -0.7510706778 -0.9270461780
0.1204892899 -0.5921387544 -0.2807046153
0.8619747300 -0.1106451984 0.4520831815
0.6252368344 0.0425903922 0.2213277931
0.5718695822 -0.4774387367 -0.2036823475
-0.2481221189 0.8805395981 -0.8612171234
-0.9702009293 0.6972115240 -0.9602843828
-0.3550143873 -0.0667200310 0.9732183754
-0.8936638043 0.7087117942 0.9084862060
0.0472147042 0.5629335725 -0.5302458323
-0.5223167607 0.3784402703 -0.6374350262
0.8969431202 -0.8245438424 -0.4336849242
-0.4286725852 -0.2365298684 -0.3052297136
0.3793471143 0.5652636542 -0.2214441891
-0.4532129175 -0.4230821059 0.0905226241
-0.8589911992 -0.3596304602 -0.7619265338
-0.3504233132 0.3847977121 -0.0345339152
-0.6986300878 -0.3526096451 0.6743051808
-0.1559767752 -0.6679070681 -0.9716177815
0.7138767657 0.2389208005 -0.5917352980
0.6565223729 -0.8769811293 -0.6638222211
-0.7524205282 -0.5098452130 0.8926263758
0.5242178975 -0.9724187804 -0.7649968172
0.3840591517 0.4344507679 -0.3465336621
0.4443773462 0.3665304421 0.7018497380
-0.4085983231 -0.5922362369 0.1715864359
-0.3386839955 0.4278901517 0.0285441399
-0.3633260540 0.0499656587 0.4753390279
0.9288023936 0.4761547531 0.4956356108
0.5868948603 0.1134128892 0.6951794963
-0.8601993518 -0.7197305672 -0.3993124702
0.8589851727 0.2233381643 -0.6471391217
0.4990120384 -0.7381635297 0.2921634010
0.2254647723 -0.1253862963 -0.3109796587
-0.7686876518 -0.1569911304 0.6447156996
-0.4046677435 0.0730799795 -0.3397570437
0.7811447577 -0.1105312440 0.9602339205
0.9511850974 0.6509834916 0.0968692890
0.6739152768 -0.3704154341 0.5048882969
0.4083118614 0.8004541438 -0.9876376321
0.4083645189 -0.3192162589 -0.2194440137
0.0992997629 0.3929741715 0.9434425642
-0.9526780652 -0.5865042492 0.7977277605
0.6430961184 0.7772655277 -0.1861634574
0.6481608808 0.6557237226 0.7018300449
-0.9747430878 -0.0828340465 -0.1177916912
0.9712842945 0.3216647721 0.7326030184
-0.8434380503 -0.5014148667 -0.1647320756
-0.0503889088 0.2627067143 -0.2750374599
-0.0933342085 -0.3910869052 -0.8313841987
0.5445817125 -0.4799497937 -0.3018029417
-0.0462672423 0.2479515117 -0.2136697616
0.0304138945 0.8241188738 0.6166323069
0.0585827160 0.6797704270 -0.8498945152
0.4616825756 -0.8546005942 -0.0507237569
-0.3049025583 0.9155193643 0.6510619958
-0.5057711909 0.2629400162 0.7405885140
-0.4552054864 0.6223939529 0.3683048516
0.2587229469 0.9915850499 0.6253675927
-0.6398798922 0.3902067351 -0.5735929224
0.4734018866 0.3660928315 -0.7210813758
-0.9486974134 0.7016805135 0.0753535745
0.9265582328 0.7568949695 -0.5440409043
0.3197151419 -0.5588038630 0.0220850646
0.2690377564 0.6518094296 -0.5532005334
0.4512193333 -0.2026078656 0.9914032893
0.3308922587 -0.0579060858 0.4728892523
0.6817705646 0.4420794900 -0.5499576479
0.8648532373 0.9753819224 -0.1015079238
-0.3983929224 0.6968165380 0.1905096667
-0.1916990380 0.8655285843 -0.4824153539
0.9067647917 0.0143593059 0.4173246818
-0.8460092158 0.1552134505 0.8080483596
-0.0358218240 -0.6030839943 0.5609749861
-0.5799662506 0.8706781619 0.8131450976
0.5445067453 -0.0849354240 -0.5288549548
0.8411042018 -0.2144473113 -0.3605700037
0.7926041418 -0.3171907754 0.8317526143
0.1802851210 0.0749404958 -0.2075979474
0.0856198060 0.7254624594 0.4265513612
-0.2610648021 -0.9867115548 0.5144696813
-0.8058928387 0.0083888031 0.2478024661
-0.0065477513 0.1090143467 -0.4609384546
-0.8935178905 -0.7604658008 0.4140941878
-0.9818808520 -0.8811662631 -0.4149463121
0.2195339789 -0.1138974576 -0.5098736257
-0.3528948378 -0.5682066991 -0.5680499179
0.3082228929 0.1487703697 -0.0308281385
-0.9396853091 0.9193784941 0.2055953069
-0.8080085279 -0.4298899295 0.4786686836
0.1090838525 0.4435431373 -0.4365355964
0.1888619112 0.9308273549 0.9431096336
0.0600563209 -0.7076644267 -0.5227320646
0.9548853055 -0.5968848943 -0.8671802137
-0.1248317958 -0.6025431385 -0.7697192016
-0.2795560719 -0.9710902272 0.6832847019
0.9320254922 0.8196087618 0.7128522717
-0.0578653664 0.7943064615 0.6556918280
0.9698196234 0.1753844967 -0.5240434427
0.4961974852 -0.3515729157 0.7181528103
0.2730548598 0.1419318324 0.9897245040
0.1230790957 -0.4151906291 -0.3818046324
0.6863477513 0.1424930911 0.6233760979
0.4652368966 0.4680404967 -0.7796773715
0.8574167650 -0.2970751446 0.9008846270
-0.9735015567 0.7455015813 0.6529700864
0.2071959618 -0.1593212786 -0.3064445877
0.6696752547 -0.4695392432 -0.5255048609
0.8418402235 0.9077173485 -0.0003512553
-0.8492541573 0.0529724665 0.1931035542
0.3551445982 -0.5327211623 -0.4720109263
-0.3502949823 -0.8034421407 -0.7442370480
0.2777361467 0.2022947844 0.6298932361
-0.6169389664 0.4360693048 0.2366614562
-0.1122982660 0.2690440372 -0.9301153895
0.1877333552 -0.1702835037 -0.8478804175
-0.3004564993 0.7152408228 0.0976101605
0.1996464466 0.7237357772 -0.2229209585
0.0122525520 0.2020806413 0.2785179286
0.9601193014 -0.0003041908 0.9184176195
-0.0067303458 0.4938584279 -0.8197680787
0.9300700727 0.1446453634 0.2247220979
-0.9708275929 -0.5110152921 -0.4934605855
-0.4708039018 0.2258421816 0.0037461457
-0.2321679133 0.2012197428 0.5081782301
0.8281301270 -0.7475732055 0.8610593196
0.4823630604 0.9267769184 0.2586776001
0.9253798275 -0.3270375427 -0.5268521984
-0.1933434694 0.2277761295 0.0771730584
-0.7913707976 0.0220452819 -0.8721992802
-0.0566544793 -0.4285320573 -0.7883477616
-0.6785528360 -0.9383161879 -0.3288863244
-0.6231894766 0.4428399891 0.1401190182
0.8639925406 0.4927147089 0.7964283767
-0.4126050536 -0.6645197256 -0.9338523179
0.5649548486 0.8229052033 -0.8412553856
-0.2070252421 0.2201349007 0.5290189944
0.8640963745 0.2280450328 0.5717376900
0.7715136934 -0.4512015223 -0.0114427468
-0.7099415546 -0.1781947050 0.6971905158
-0.6101229839 0.5648682729 -0.1612784030
0.3923152148 -0.2973966575 -0.6375862379
0.1392160392 0.8559912232 0.4506419577
0.8549018340 -0.3985218217 -0.2246767259
-0.6126823630 -0.4764208005 -0.0582612314
-0.4134616924 -0.1595495953 0.8301098429
0.8700151780 -0.7066807857 0.9664591520
-0.4961790341 0.9203250067 -0.1135603617
0.6914773683 0.3112267874 -0.9180652576
-0.3768322821 0.6247465866 -0.8359488580
0.5472975398 -0.3261394150 -0.0576017568
-0.0777499688 -0.1089585900 -0.3612242558
-0.9686305846 0.4194725527 0.5072354417
-0.7138206279 -0.7400545664 -0.8505155017
0.9371371229 0.1340440223 -0.5847030195
-0.6313461440 -0.7566598195 0.2930228820
-0.5867448891 0.8447018255 0.5962670368
0.4833993745 -0.3579708461 -0.8147787946
0.3465294902 -0.5071961798 0.6082777094
0.3888257721 -0.9774868925 -0.3582939409
0.6023343501 -0.7255207165 -0.4148854848
-0.5527499307 -0.9585578922 0.8857261606
-0.4719734402 -0.4782685142 0.8447058699
0.4193011695 0.7638679852 -0.6968994371
-0.6356960488 0.6851515665 0.6708893578
0.5865608305 0.6309697626 -0.5127825108
-0.9158315986 -0.9320707884 -0.4843347433
-0.8170957732 0.2555736893 -0.7168457543
-0.0863701474 0.1170020322 0.4622089250
0.3325132378 -0.9960619823 -0.1526746036
0.7584422703 -0.8328847141 -0.2093782246
-0.1090861280 0.1843999186 -0.0617374569
0.6155192580 0.2902633253 0.7657513633
0.9894848981 -0.8591956958 -0.9340056798
-0.7639597363 0.7862296142 0.0088671647
0.1244119792 0.9441238922 -0.1696243752
-0.9937970055 -0.2305500099 -0.8719470389
0.2282641404 -0.4383708677 -0.3597613489
0.0389607620 -0.6513602219 0.9070573917
0.1704478324 0.6729701387 -0.7019378238
-0.9117506569 -0.1796843584 -0.0267455843
-0.9494417680 -0.5758680794 -0.7031712282
0.7220776716 -0.8133567844 -0.4450041225
-0.4568373023 0.9561023153 -0.2235768421
0.9403119721 -0.4823996156 -0.3167877269
-0.1606793644 -0.9206623643 0.6406289326
-0.6144676735 -0.8027100636 0.9178002772
0.9099872005 0.9825160850 -0.7354239452
0.9204560148 -0.8583554939 0.4227667439
-0.6979621671 0.2356693468 0.7238045103
-0.6597173014 0.2235607955 -0.7381340914
-0.2539609028 -0.3863045461 0.5996476955
-0.8720041442 -0.9256250172 0.3257385203
-0.8398216816 -0.7868318998 -0.9314049357
0.6575852351 0.3816466730 0.4701207332
-0.4371295504 -0.1895868752 -0.0453405436
0.3276149172 -0.0143590355 0.2795289502
-0.1701130311 -0.8974521015 -0.5103697503
0.5524741362 0.9281396942 0.6241353041
-0.9797857194 -0.7310408110 -0.5415657009
-0.9298274941 -0.0894503308 0.7123767829
-0.0087416521 -0.7401793628 -0.4194792632
-0.9443887201 0.5265906391 -0.4234449712
0.6567557841 0.3428525176 -0.4446844674
0.8790968603 0.1016578384 0.4727506042
0.4746445243 -0.9423240187 -0.8926272759
0.6506407297 -0.0103394076 0.5307067969
0.7002056203 0.8332147558 0.9159206447
-0.4534914471 0.4792025563 0.8179799682
0.4088418191 0.2374187927 -0.1961965160
0.0457671040 0.9681875587 0.4986760885
0.0245927182 -0.1755850103 -0.3563236180
0.0446217795 0.4063269182 0.6015782318
-0.2082881529 0.8380134565 -0.4528717458
-0.6832252441 0.7396990126 -0.4026405696
-0.4147775439 -0.5869704964 0.5532024898
0.3755289998 0.4416205672 0.3457777922
0.2927964203 -0.8070861751 0.3406588851
-0.5889965360 0.2331168821 -0.9852187302
-0.0985903692 0.1214576417 0.7113781748
-0.9196425051 0.3905892156 0.3461854464
0.4027367100 -0.5617415927 0.9103991561
0.1800541787 0.1293225626 -0.2406077626
-0.5082120833 -0.3232856826 0.5005373331
-0.1495309547 0.3120794884 0.1071270692
-0.5147792394 0.6918169868 0.2170372652
-0.1257149747 -0.1104173401 0.9871796442
-0.9833499153 -0.4031024717 0.6989184056
-0.8255417130 -0.8777748625 -0.0740452467
-0.5409100257 -0.5703822998 -0.5182693903
-0.7323061644 0.4655679718 0.5880748032
0.1051851621 0.6341300025 0.3535203280
0.0252198671 0.2894129554 -0.4466495340
-0.7782298711 0.5602727055 -0.1301663206
-0.0454655052 -0.9054110441 0.7154378252
0.5701076482 0.0794201702 -0.0869810886
-0.3410861992 0.3336217889 0.8190098807
0.3849295495 -0.9061316886 0.3112183829
0.8216281528 0.6847548996 0.7276669326
0.4907438155 -0.0795503736 -0.6721060740
-0.3040683466 -0.0837033319 0.5004858573
-0.1668340071 0.7253104078 0.4030181142
0.0416679933 0.4596443749 0.0839828685
-0.5938287402 0.8429920732 -0.2910779289
0.7895724636 0.2765438466 0.2456060937
-0.5244819526 0.1061783826 -0.7140607697
0.1487086609 0.5065219338 -0.5726600162
-0.9422190921 0.2368651814 0.4521060835
-0.2602437048 -0.8655928641 0.3014252864
-0.8724517229 -0.6878765239 -0.0188773560
0.2328781658 0.0573882588 0.2226657688
0.7635974907 -0.3049660087 -0.5875037991
-0.7192085675 -0.4693458576 0.5224888223
0.6136856002 -0.6410823148 -0.3862147988
-0.4585897921 0.4464221185 -0.6414070841
-0.0087698050 0.9463376278 0.7627432385
0.8988176947 0.7411208102 -0.6943053911
-0.6311490883 0.0327316000 -0.1530978520
-0.0689090237 0.9899543854 -0.2103817357
0.7730172158 -0.0055292724 -0.5209386887
-0.2740838856 -0.9464797293 0.4768235632
0.4089429220 0.3212764317 -0.6112729717
0.6346646815 0.6563570917 -0.3333054770
-0.8859091980 -0.7064735566 0.2998798515
0.7758900347 0.5611651902 0.0620003265
-0.5593822917 -0.5826373118 0.5404584557
0.9416030603 -0.6079923926 -0.8885735843
0.6535610756 0.7725957432 -0.6678624772
0.0828533605 -0.2595645393 0.1643686448
0.4196718097 -0.2692450613 -0.2517650346
-0.8307777785 -0.2147920964 0.4271941839
-0.8967794066 -0.9152386449 -0.0848435231
0.5647221991 0.4719514483 -0.8538552255
0.5439926793 0.4733289617 -0.1191289602
0.6974459818 0.4458722630 -0.2210420281
0.7338831272 -0.0332242596 -0.5418999350
-0.1766288857 -0.9774350300 -0.2365786880
0.7971931144 -0.4436146982 -0.5816473924
-0.9029199278 -0.1588893510 0.1118287171
-0.6069164559 0.5738919226 0.0383854352
0.6723891208 0.9448933327 -0.8649272396
-0.6085689728 0.8995702439 0.5292774289
-0.6680846898 0.1123472832 -0.5667302542
-0.1410797451 0.6721781641 -0.3181410455
0.9244733034 -0.8730369722 -0.5571196853
0.1862612375 0.5222473932 0.4974541419
-0.5318526147 0.2365201359 -0.1289275278
0.2837435473 0.9137509970 -0.0458107456
-0.5061266387 -0.9476557819 -0.7110707118
-0.2710309654 0.6951469118 -0.2040158520
0.9941757810 -0.7514510605 0.2587785583
0.9984148620 0.4718654405 -0.9526044896
0.1753812619 -0.4187596993 0.4552905527
0.0824320328 -0.3644862942 0.4216915165
-0.5678489758 0.4951601200 0.3915020501
-0.8555027172 0.3248019786 0.2474239099
0.8793488350 -0.2250205951 0.6074029602
0.6719203190 0.0024467747 -0.7705160020
0.7172086595 0.7074003551 -0.7358449052
0.6167277265 0.8462965890 0.1962428853
-0.7864189328 0.8136162550 -0.8537643092
0.8001767754 0.3703959997 0.6692761071
0.0216534547 0.1952702850 0.6632549320
0.4866508520 0.9287872590 0.9765513766
-0.1593421579 0.5363976142 -0.9462867828
-0.0597590906 -0.6686187771 -0.2515778171
0.5414524171 0.0381175378 0.3768354307
0.8830727954 0.9149069680 -0.0550597989
-0.8717973415 -0.7231483057 -0.2603770945
0.1163201126 -0.1022116648 -0.9237851736
-0.8628862105 -0.5354414559 -0.8994104634
0.9667769482 0.6285969791 0.6750904605
-0.4281785510 -0.8837608442 0.2503074166
0.6777190014 0.9825100698 0.5801324159
0.1851059120 0.3547515511 0.5653410413
-0.7898842415 0.8026199811 0.3664591727
-0.6646289116 0.6773263208 0.3083942441
-0.7706008247 0.5952043227 -0.7193577823
-0.5183741646 -0.8870827357 -0.1746341836
0.3284157218 -0.2965681514 -0.0263923092
-0.3887596561 -0.5798344770 0.2307403186
0.9405371068 0.7975751963 -0.4837304835
-0.1920833736 -0.8459350057 0.3938225134
0.6591284018 0.8201283635 -0.9017127083
0.3276357274 -0.4139338237 -0.4843878899
0.0674543980 -0.0664247388 0.4265734922
-0.2879275157 0.1262056114 -0.3898959571
0.7859096023 0.5766115578 0.8050924078
-0.8431849766 0.5140768579 -0.6098745171
-0.3802822487 0.6867233585 0.6535550691
0.5643923205 -0.4106664596 -0.9224150070
0.8816777374 0.8281245703 0.8740760335
0.9268789684 0.5148809158 -0.4370232587
-0.9677562988 -0.7754650804 0.4060822114
-0.4994101375 -0.2322032631 -0.8736299989
-0.4707593753 0.9583969321 0.9066628569
-0.8972203276 -0.7094263235 -0.5039055308
0.8436068412 0.3830207208 -0.9086858886
-0.2157810129 0.7529232744 -0.7463754791
-0.4145964233 0.7195703388 -0.3708833124
-0.5527781308 -0.0257793769 -0.7408243532
-0.9050151299 0.0614830791 0.9080591922
-0.7782798508 -0.0370369864 -0.9527324872
-0.8983166538 0.7064560723 0.5948149667
-0.0194370377 0.7806816766 -0.5984339938
0.4815662416 -0.3517650863 0.8401969269
-0.9907767856 -0.8614157020 0.5969036157
-0.9767510826 0.8949156402 0.3523425767
0.2603259980 -0.2241581198 -0.8894129089
0.4423360932 -0.1432480413 -0.0083570611
-0.5712984088 -0.0334227424 -0.0440896605
0.0828086359 -0.9006350549 -0.5459504710
-0.2213937104 -0.0828890026 -0.6455490076
-0.7088841795 -0.1276913070 -0.1208983210
0.7164059934 0.1000097384 0.7182059014
-0.5133829106 -0.1401515589 -0.9838723180
-0.1695939370 -0.4872540549 -0.1765328910
-0.3280689574 -0.1597735918 0.7853456893
-0.3624460361 -0.1958076032 -0.8704972436
0.0496926899 0.1635241664 0.1666425837
-0.9028519814 -0.0449570999 0.6941782528
-0.5718422594 0.9945612680 -0.7251738449
0.8537330151 0.3766157241 0.3087608657
0.6707124102 0.7775882592 -0.9916191458
-0.1660942019 -0.3931747256 -0.7695971459
-0.3544119988 -0.6311698163 -0.0936775531
-0.1666449686 0.1000054213 0.7763853872
-0.2840560383 0.4354321975 0.5407555509
-0.2608915786 0.8005801428 -0.5405174669
0.7180720196 -0.4978143780 0.7586554180
0.8933556586 -0.0423709857 -0.7469223973
-0.2209408190 -0.4929569846 -0.8223111809
-0.5092979441 0.7865027045 0.0519912746
-0.4875891238 -0.3274319057 -0.4189275659
-0.0181085379 -0.5099853820 -0.2273780882
-0.9342684586 0.2534299320 0.6275566953
0.5288438191 0.3658556537 -0.9207612856
0.2445208609 0.2772465885 -0.9531451578
-0.8573098849 0.9590179593 -0.5453433946
-0.9141622092 0.1935914721 0.5403066678
0.3214782335 0.9050736008 0.4768979990
-0.0667562866 -0.3114276528 -0.5274025181
-0.8073825131 -0.3720942314 -0.9318681117
-0.4852815607 0.9178868131 -0.6807871441
0.9453130122 -0.1009248916 0.3608286043
0.0877232759 0.4266753989 0.8061509606
-0.9136685951 0.3424498460 -0.1252837165
0.5427451358 0.2636478784 0.3831314492
0.3316594188 0.5783919715 -0.2366790818
-0.0868865135 0.5945617693 0.9218474779
-0.9197853293 -0.3169813146 -0.9710380929
0.3671011165 0.4938763935 -0.0984454855
-0.0457189891 -0.0610575695 -0.3626369226
-0.9273397918 0.6848731712 0.5234463046
-0.8132809356 0.4819942867 -0.1369425890
0.8201346351 0.9274897598 0.9980938252
-0.9801669439 0.3405968938 0.8329427998
-0.2151384048 0.5143284130 0.1355716324
-0.7171364484 -0.7848633014 0.8515727746
0.1206311268 -0.0558249481 0.1313762856
-0.6258575978 -0.4967526001 -0.4237203652
-0.6058303687 0.5947423751 0.0262337205
-0.5971513470 0.5705770134 -0.6656177586
0.6622698650 -0.8891854702 0.6410965186
-0.2947574750 -0.3694507752 -0.6268766876
0.7437157432 0.3788804192 0.5129581037
0.8978389232 0.8351068849 0.1055451227
-0.6375949953 -0.1292064936 -0.1829126655
0.3954450015 0.8324947859 -0.6489649887
-0.7778626459 -0.5272791566 0.3371475937
-0.8474666142 0.1565845228 0.8036037566
-0.7893597860 -0.3329054068 -0.1436772640
-0.9109845428 0.1061752617 -0.2494527527
-0.9910194034 -0.5747640156 0.0858507101
0.0459380635 0.3735246884 -0.1824101807
0.1056018836 -0.4902388944 -0.3191095086
0.6918872210 0.6748022513 0.5688544906
-0.1165335654 0.9221986708 -0.4824986690
0.5235546231 -0.4893736458 0.2721995662
-0.9083327063 -0.9572612045 0.0987364541
0.9884820185 0.6970395195 -0.3651609113
-0.8917581399 -0.9407992215 -0.8400825802
-0.2626729090 -0.2886292212 -0.6559714547
0.5534832374 -0.6290929375 -0.9268802975
-0.0073612917 -0.5587625746 0.3402397598
-0.4473103474 -0.7294895587 0.9547698552
-0.5166878903 0.9712371335 -0.9264276540
-0.0102224189 -0.4349890301 -0.2766033949
0.9195001169 0.1649674551 -0.4629094769
0.1601966521 0.7907458403 0.7066184229
-0.1754601906 0.8919830458 0.5258330876
-0.3741465390 0.9176621627 0.8659907839
0.0900960642 -0.5096632252 -0.7547165243
0.6314444820 -0.4145441221 -0.7038593790
-0.6570831622 -0.2226203064 0.3691855565
0.6709534890 0.9856597883 -0.3712871269
0.2670560245 -0.0990287054 -0.5831648680
0.0140268990 0.4786349756 0.2280485913
-0.2098241490 0.3017646697 0.8449578840
-0.4370001141 -0.0606747306 -0.2755460321
-0.5701544080 0.4066078150 0.8747785193
-0.3290219445 -0.0812162987 0.0059155707
0.0067745660 -0.7489863983 0.4126966504
0.5822671968 0.7448905953 -0.3504986803
0.5769873002 0.0715077146 0.9124317198
0.8116635854 -0.7069804329 0.6809669626
-0.4780629826 0.3690151033 0.8728075383
-0.0298151046 -0.7138441882 -0.6421719164
0.9415762324 0.2648257026 -0.8328942923
0.6529433283 -0.9072303867 0.9748348268
-0.3931536052 0.2885073437 0.7203755813
0.8387117928 -0.2984458916 0.7466522197
0.3845114311 0.1172961765 -0.8813207224
-0.4217621695 -0.5440005812 0.5170505248
-0.7740400595 -0.2484013881 -0.3809618715
0.9041055400 0.1473439698 0.4274568575
-0.2974603317 0.9268761158 -0.0648829734
-0.3180445781 -0.1306964424 -0.2051821476
-0.7386112187 0.0709348612 0.2160062204
-0.8734176463 0.9128087651 0.2242563739
0.6627198781 0.3062618667 -0.3455583274
-0.6239202541 -0.4685614223 0.6066190484
-0.2526081184 0.2714653000 0.4008442433
-0.5393533672 0.1795919363 0.9207080647
0.5204754646 0.1248418531 0.5724624430
-0.4497887557 0.1768443069 0.9076206383
0.5291116037 -0.3189289159 -0.7374635746
0.8324656503 0.1278443843 0.0753999657
-0.2702495726 0.9809962323 0.4799891268
0.1679191061 -0.9077975428 -0.7418741005
0.1839320648 -0.3821366984 0.9674562664
0.2241887426 0.1652396874 0.6472857421
-0.4074670705 0.9683832672 -0.8277114368
0.3281032029 -0.2348045893 -0.5498852204
-0.0343693262 -0.8557510523 0.3416731488
-0.6957955320 0.0679320377 0.6974859861
0.3812783864 0.8032430126 -0.8553923172
-0.3498488080 -0.0684120970 0.4915978829
0.1197441943 -0.5227584359 0.1128864161
-0.5288639600 0.9789921793 -0.9593565304
0.6229481178 -0.6323581091 -0.6169728046
0.1476412411 0.9506088663 0.5820035914
-0.2550515799 -0.1238156290 -0.4699883701
0.2732482191 0.4796505698 -0.0267310513
-0.8129406088 -0.0963184535 0.0839462633
-0.2702058560 0.5984749815 -0.9578877735
0.7353596465 0.3104826562 -0.7327764724
0.9281075893 0.6594363291 -0.2701816632
-0.0908960620 0.6834423362 -0.8135115766
0.5173431224 0.3200975999 0.7218341309
0.3950484128 -0.1762686351 0.0669742985
-0.3981346220 0.2679171034 -0.8131656655
-0.3713593873 0.9953588234 0.2104268371
0.6931921792 -0.0780545790 0.1393366517
0.9592924413 0.9228570362 -0.2810150281
-0.3690020065 0.3209164187 -0.0906613622
-0.0216326064 0.3857332486 0.0490511036
0.6006366852 0.2241583284 0.7698170027
-0.9417348338 0.6563540991 0.4095157284
-0.8111195952 0.0995048893 -0.1597838641
0.2941626062 -0.8191465903 0.8062504513
-0.2284326970 0.7451504116 -0.3731212608
0.5532725782 0.8850744486 -0.3099679361
-0.5794727209 -0.4801040250 -0.5345259956
0.8267302013 0.4896275423 0.2999958592
0.2594212487 -0.0159546726 -0.8305200742
-0.2226493813 -0.7819290367 0.0320949013
0.9200359132 0.5198617671 0.7986139876
-0.8493970147 -0.3460355752 0.1781283509
0.9747546719 -0.0962805044 -0.6298034971
0.4018153717 -0.9912364207 -0.4088966509
-0.0701889565 -0.7805367008 -0.2201344673
0.2260683212 -0.9914233781 -0.7149129189
-0.1040508146 -0.0867907042 -0.4301013170
-0.5120670029 0.6703747107 -0.2238298660
0.2385959947 0.9574652765 -0.0748366029
-0.8265764299 -0.1014185913 -0.2533817745
0.8520777345 0.4927293140 0.7721191330
0.7955150107 0.0465918756 0.3028555888
-0.0974780173 0.9498134863 0.9862408596
0.6824298782 -0.8732224345 -0.8209481200
0.7071680259 -0.5365326357 -0.4170470240
-0.5417854778 0.8130479328 0.7295378400
0.3954965887 -0.0186368805 -0.1108786595
0.0580332186 0.5781784801 -0.0233263514
-0.7390151872 0.4725930168 -0.3251032875
0.7280364971 0.9387581499 -0.6568785748
-0.4425725980 -0.5967033796 -0.7413082719
-0.0471418834 -0.1884426112 -0.3076828646
-0.5920453987 0.6130974378 -0.9822267289
0.6733875139 0.2515928911 0.7121351522
-0.0748174619 -0.2133721539 -0.8097570526
-0.9394223507 0.3633016086 0.8268501047
0.3179665404 0.6624910261 -0.1728393752
0.6810865314 -0.4875857414 -0.5287588288
0.0044685482 0.1182290323 0.1205271396
-0.7093307018 0.6255869316 0.1201167458
-0.3622276096 0.2837076585 0.6047035930
-0.8714756891 0.1537269738 -0.7578090182
-0.4752014142 -0.6381505339 0.0576191560
-0.8210336545 -0.7544483916 0.9868855524
0.1411109332 -0.7052009904 0.6384775116
0.6415140321 0.6699094629 0.0144407904
0.2675818876 -0.0141245118 -0.9924225551
0.4679071876 0.9896042517 0.9307812358
-0.5052268776 0.7311374138 -0.3615829826
-0.0996242817 -0.5056137995 0.7077134566
0.1929823219 0.3548182815 -0.7119688543
0.6165991321 -0.6894699290 -0.8540073086
0.2977217079 0.5076659847 0.3327376650
-0.4755414335 -0.3812361337 0.0622010671
-0.3328673288 0.5734108206 0.1215494307
-0.4478898032 -0.6821983801 0.1545093560
-0.5485956953 -0.7540366769 -0.5720751471
0.9567025890 0.7154330500 0.4992179939
0.5669596343 0.6235431143 -0.9573463130
0.9004201930 -0.7796635736 0.3662923871
-0.2323314154 0.8183998173 0.3092192661
-0.0584068260 -0.3413411793 -0.3291873539
-0.1192401262 0.4972731327 -0.9859362374
-0.8401750737 0.6326353661 0.0000488902
-0.6558285419 0.4418418037 -0.5585880395
-0.3983588595 -0.0268964457 0.3982459055
-0.7472642998 -0.7405171984 0.3464983642
-0.8422697218 0.9023895127 -0.2142073728
-0.5545279425 -0.6281007457 0.3743028885
0.8264258392 -0.8531110816 0.4594218663
0.6130682347 -0.6031493318 0.6984838820
-0.9290873517 0.1803862369 -0.5860507775
0.9533165776 0.1456448004 0.2486960618
-0.1382397585 -0.0088431836 0.1633530750
0.4717973990 -0.9999127497 0.4159252691
-0.9314632481 0.0039583905 0.8122025594
0.9671786966 0.4294971622 0.1031959785
0.1167854126 -0.1107329857 0.9484427359
0.3418739188 -0.3942057235 -0.6371933490
0.8286080250 -0.3513472156 0.6932066052
-0.0746149185 -0.9268425099 0.4724633508
-0.2160612362 -0.9652859517 0.9346824127
0.6631447982 0.4812847034 -0.9315889474
-0.3387536310 -0.9919396752 0.8683485753
-0.7243022936 -0.2623531819 -0.7829111133
-0.1981180509 -0.3129955065 0.0907902109
0.7958083540 0.7811147431 0.5778815893
0.4391079432 0.3388117426 0.4058262675
0.5126532098 0.6870951695 -0.0721532389
-0.1810467044 -0.4094523028 0.1577020128
0.5049680666 0.2492793200 -0.5392035002
0.1535337708 0.1197859420 0.5832263569
-0.5354891543 -0.1035710119 0.3838838335
0.7961158532 -0.2899784799 0.2743695895
0.6398373465 0.6659118036 -0.6828489803
-0.8123988198 0.2888396946 -0.0859016768
0.6125965485 -0.3917311075 0.4561644925
-0.4549147855 -0.1316613336 -0.8544621150
-0.1175661686 0.1668997490 0.2212903999
0.0204230032 -0.7885751427 0.8289283702
-0.4348444757 0.1531706772 0.3148952067
-0.1847352777 -0.7259797846 -0.6197719579
-0.4425714502 0.0551764507 0.6146118866
0.9299028979 -0.0921037120 -0.2872973940
0.5229124836 0.1466346601 -0.0642419832
0.4142918841 0.4249026642 -0.7929745772
0.3773403360 0.8258246822 -0.6440222409
0.7181571850 -0.2100623371 0.3193277347
-0.9850616725 0.9791129037 0.9308517514
0.4652043828 0.4062802852 0.9751035828
-0.8339368223 0.8153501979 -0.7364755993
-0.0564712744 -0.8679137113 0.9187912866
0.4093364753 0.7626859393 -0.2947964764
0.4216114237 -0.5376163395 0.7319152702
-0.9360558695 0.3063340422 0.1974058412
-0.1894688441 0.4563530403 -0.7923104927
0.9317889514 -0.2714497709 -0.1350257800
-0.5762776015 -0.0415229684 -0.2955546413
-0.0697309115 0.0094022444 -0.2482092876
0.4468257530 0.4748346121 -0.3202067307
-0.8182312857 -0.8504197290 -0.5240856666
0.8744471318 0.9357068360 -0.4016350986
-0.7213755599 0.1320364730 -0.6334461626
0.6075596715 -0.6175460390 -0.3592012996
-0.9709440205 -0.4493201904 -0.2847575459
0.2466978162 -0.5360029422 0.8563740430
0.3683019418 -0.9818670971 -0.3282583191
-0.1059154921 -0.1320834055 -0.7834011240
0.2872420115 -0.3212188926 0.5908182716
-0.3423334977 -0.6787245175 -0.6248272108
-0.9415537548 -0.4463928876 -0.2644206850
0.5203170464 -0.3771429426 0.1492032308
0.0421825633 -0.2429466190 0.9181685283
-0.9241435324 0.3968472657 -0.6090877776
-0.7936538285 -0.6166725685 -0.6383381398
0.9981548871 -0.5849004901 -0.2638605610
-0.4784027377 -0.1990542876 -0.7380448123
0.9236603090 -0.5716696126 -0.9666624401
-0.2587180601 -0.3049757832 0.8771160799
-0.7673581186 -0.1245598465 -0.0047051684
-0.7637650349 -0.9551875668 -0.9742536771
0.0500779561 0.2544702041 -0.3207215038
0.6721322283 -0.0862953165 -0.9770349770
-0.5784730902 -0.5152793514 -0.4323827585
0.0632500380 0.4392549029 0.6654251948
0.1403879374 0.1002673579 -0.2863531702
0.8577651955 0.6363623703 -0.9464782600
0.4401449508 -0.7086356765 0.1874816502
0.2081986763 0.7815841407 0.9329166257
-0.2285773887 -0.0794641054 0.5214486845
0.9798063299 0.8705507681 0.8057996377
-0.3615221705 -0.8801040145 0.3373630465
-0.8060882751 -0.6170782515 -0.5789545345
0.9085069255 0.0326695904 -0.2041683813
-0.3989301903 0.4919429838 0.3538340588
-0.1684007892 0.7295633932 -0.5472048109
-0.3332026463 -0.4054644800 0.5389741021
0.1177147868 -0.2211286322 0.9351010242
-0.3203743070 -0.6748584884 0.8185320166
0.6316005817 0.2681100430 -0.2949864026
-0.2240964179 -0.4521220459 -0.4822155373
-0.0940873878 0.6641196379 0.1459555306
0.7985604675 0.9501435949 0.5028460213
-0.2001300090 0.2267114823 0.6685561260
0.5463068848 0.9615609863 -0.6439062021
0.1382790622 -0.3211585722 -0.7385248470
0.9580524137 -0.6502896349 -0.1311448709
0.6304952624 -0.8988495055 -0.1012469485
-0.0858492769 0.3342436209 0.5544360726
-0.9023373548 0.9612052340 -0.0452596935
0.5462264529 -0.4908686545 0.3498304271
-0.3426142335 0.3492339249 -0.2513440245
-0.5867984312 0.1490552823 0.3190014701
-0.4909145668 -0.2966515885 0.6031568521
0.9778998895 -0.6356363793 0.8302039130
-0.0407250969 0.2075295302 -0.6817446791
0.1528394304 0.6069575390 -0.1634915643
0.0909034110 0.8653890378 -0.4988075753
-0.3525931488 0.7041614201 -0.7677327135
0.2057192431 0.5594610056 -0.7469121286
0.2487080920 0.4252952030 0.2370709988
-0.5878802176 -0.8950217751 0.5323537862
0.4910721543 0.1187316085 0.2462921166
-0.5450557950 0.9144086417 -0.7424101068
-0.8389279540 0.1306834658 -0.2598840390
0.7513142342 -0.7324908134 0.9864116151
-0.2020218931 -0.4061768933 -0.9192084366
-0.4334401619 -0.6733583624 -0.0422558463
-0.2076022798 0.7253724549 0.0133116357
-0.8068174375 -0.3836969090 0.7766381342
-0.5631954509 0.7534704316 -0.4224313218
-0.2077548353 -0.7596807417 0.8149871559
-0.3938133452 0.2196276132 -0.4022338157
0.0285703387 0.7153066522 -0.3116913632
-0.5128662056 -0.2469418740 0.1041630558
0.3210473900 -0.0461084521 0.7541258882
-0.1051012110 -0.9795769425 0.7751438942
-0.1568556439 -0.9964860010 0.5716049929
-0.3385868492 0.1510984336 0.9045076549
0.4099466662 0.2174493058 -0.8605165129
0.0659557638 0.8174879992 -0.0260764164
-0.5972207742 -0.7679786622 0.3682762645
-0.5964061574 -0.1843188390 0.1570334296
-0.2695274558 0.0749406704 0.7185330545
-0.2909745599 0.6770588452 -0.4962412968
0.5830458929 -0.0699223954 -0.6805791429
0.0325704714 0.5854648933 -0.9726561216
-0.4342380758 0.5239367147 0.8241528536
0.9995286086 0.2065085393 0.2010743778
-0.5499081304 -0.1581433097 -0.2080833581
-0.6987158198 -0.8659151847 0.7628810546
0.1865864337 -0.4090418865 -0.1927315856
-0.4290809510 0.2686535844 0.2743345091
0.1606278240 0.9231316138 -0.1820236406
0.8119912392 0.1905717685 0.5395010454
-0.4207099340 0.5364363234 0.6366879327
-0.5287115731 0.5235433684 0.7534772008
0.2471571383 -0.1502697315 -0.2138920395
0.2490705521 -0.0975450505 -0.8673563024
0.7956921223 0.1597720254 -0.9465546417
0.0860749871 0.3720816478 -0.6318397216
0.6360098165 0.3726847390 0.1838888749
0.7789009116 0.7755914455 0.5788601004
-0.7398612321 -0.8975316152 -0.0692068336
-0.8066316628 0.8937852283 0.5305308398
-0.8402511399 -0.9997557946 -0.9050445644
0.7931506701 0.1276339112 -0.9681305891
-0.7345975137 -0.3626850501 -0.9876269582
-0.0057617620 -0.5233771713 -0.2948217034
0.8563142820 0.9084938399 0.0992585604
-0.1974559064 0.1109377874 -0.3802518532
0.8758324042 0.9461299465 -0.6267223050
0.6191769826 -0.8702392690 -0.8578256227
0.0855594445 -0.1618776265 -0.9238786735
0.6935135671 -0.6952136825 -0.3536111888
-0.9534462241 0.5106491190 -0.5198695503
-0.5105999485 0.4673730011 -0.7896980414
-0.3696164590 0.6946099638 -0.4292938916
0.0350811795 -0.5265655205 -0.8276243125
0.9258107939 -0.4166263118 -0.0151986814
0.0858032517 0.9706750352 0.9274691874
-0.4495905114 0.1444607637 0.6237483815
0.7884515504 -0.8297177766 0.3663788360
-0.6873749329 0.7683546146 -0.7878054685
-0.4610674049 0.0314269589 -0.3566411627
-0.8587486018 -0.8720768170 -0.2539497884
0.6322565032 0.5629771286 0.3244160027
0.8089819648 -0.2562911861 -0.1806876128
0.3346963845 -0.7261926832 0.6264042715
0.1415373203 -0.4695022837 -0.8984358717
0.0596011394 0.3584011653 0.8510581248
0.8251906805 0.4994164349 0.8294697110
-0.4727224820 0.9868310535 0.1442237413
0.9079939816 0.9902029956 -0.4458785432
-0.1700194072 -0.4509837902 -0.5565879986
0.5884474496 0.5478481149 -0.3410375478
-0.3015124063 0.5761246787 -0.2396724081
-0.8133791989 0.7400201737 0.3315457376
0.5601802750 0.4380426102 -0.7251532865
0.5486027084 0.5213844098 0.0062663368
0.9315002035 0.1452464221 0.3279220628
-0.5249250799 0.7724581114 -0.2601982766
0.8721584746 -0.8069671632 -0.7574244180
-0.8946051521 -0.7571131815 0.2603159448
-0.2069368102 -0.1563708508 0.0697261287
0.4331892561 0.8448469477 -0.3150038805
0.9699287983 -0.5637374363 0.8458179950
0.8105174785 0.2289598158 0.3272433780
0.3402343500 0.9946511462 0.8148163581
0.3304616702 -0.2019658392 -0.3785928347
0.7691552191 0.8803414488 -0.5127037672
0.3335874710 -0.3688763250 0.8545108761
-0.0393847829 0.2147798937 0.5096872769
0.8752588964 0.8779647396 -0.3616702012
0.3308215857 -0.3291617290 0.7219177186
-0.2661641965 -0.5071372778 0.2248344906
-0.4765520934 -0.3171438005 -0.1396370930
0.6645359118 -0.6428352147 0.6880518847
0.5238956244 0.3419971776 0.9273387657
0.6767989370 0.2936754860 0.0208784668
-0.5031533483 -0.7230454144 -0.3239207468
0.8970786880 0.9378471133 -0.4039500271
-0.6998035323 -0.2714809843 0.0083833137
0.5998367816 0.0094685711 0.9355216268
0.4143819461 -0.5908034917 0.8001332102
-0.7699175198 0.2990455134 -0.3212632311
-0.9946346664 0.9159954367 0.8578925514
-0.3695807345 -0.8912296769 0.3806254439
-0.3260622556 0.2059273147 0.5416388247
0.8434486350 -0.3545438501 0.6436517572
-0.6837638572 0.4016933056 0.8044042308
-0.3551981824 -0.6200145079 -0.1424060434
0.5580490759 0.4873764992 0.2401584252
-0.7013513208 -0.1843217633 0.6730147173
-0.0506261858 -0.7722430964 0.5547569996
0.1361669957 -0.9222839754 -0.8653473264
0.0938621044 0.0929383769 0.8623360998
0.1537157585 0.0690484548 0.3075467849
0.7185292678 -0.2673597550 -0.4986849016
-0.8464127333 0.3947938435 -0.2381877621
-0.0035727270 -0.2337939951 0.5561236952
0.4329391839 -0.1092586232 -0.7050515477
-0.8177332640 0.5058785257 -0.3431421723
0.3436368420 -0.7812588469 0.1046901225
0.9974041707 0.6391302706 0.8737536808
-0.1599567440 0.4936900718 -0.2460746036
-0.3995302415 0.4242802074 -0.2256422839
-0.8039624569 -0.4212559980 0.3982974562
0.3063439104 -0.1390652773 -0.3741218791
-0.9005880425 -0.4284267618 0.8138321841
0.7627448535 -0.7782749718 0.8957478070
-0.2350637890 0.8021892679 0.3588758110
0.3248780834 -0.5236408631 -0.7784104461
-0.4497885050 0.3457390985 0.8840773232
0.9789307569 -0.1739793849 -0.3738576405
-0.2552688318 -0.3309018655 0.8760705174
0.8577694529 -0.8542201110 -0.8707662647
-0.2349715225 -0.0484889527 -0.9898231625
-0.9087043892 -0.6958619712 0.3237707932
0.2546426926 -0.1543418023 0.7648254933
-0.1616346804 0.0553872114 0.7300921893
-0.8067820499 -0.8153044971 -0.8504188318
-0.8338557373 -0.0704206056 -0.1404478289
-0.4266587543 -0.2221884858 -0.1522269655
0.0982582216 0.9447502332 0.0322755893
0.7945840751 -0.6165234156 -0.5774183678
-0.5957902153 -0.7167679288 -0.4157695446
-0.1004153105 0.1503236666 0.3442219573
-0.3276951764 0.1528267708 -0.5431448809
-0.4964216887 -0.2930788238 0.7373208932
0.6159818785 -0.1808950815 -0.2235967437
0.3779656422 -0.1865197136 -0.1822025365
0.8599256507 -0.9495572402 -0.5061641062
-0.4640103003 -0.5572250731 0.5654168889
0.9765178592 -0.6641283811 -0.7755543828
-0.9346166065 -0.0237795573 -0.5062777406
-0.3703042464 -0.4812848295 0.5526569456
0.7884174131 0.1492255110 -0.3644450621
0.3791679870 0.5507457197 0.0836198141
-0.5829129994 0.2597513366 0.8367369558
-0.8816571180 -0.4518936204 -0.6006264414
-0.2450903709 -0.2318348843 0.0065250440
0.6397093402 0.4998158841 0.1768938034
-0.7607689095 0.9592566980 0.1804403069
-0.3488907578 0.4174308238 -0.6980653537
-0.0046527212 -0.1375565380 -0.4028761434
-0.0926511634 0.0201440398 0.6920534965
-0.9042697938 -0.1830974242 0.2408284241
-0.5432863669 0.1724353393 0.9174059579
-0.7751811859 0.0545049281 0.7611948186
-0.2234183672 0.3147628084 -0.0877315607
0.1718101069 -0.9689575112 0.3668064376
-0.7094431169 0.4207308074 0.9683103442
-0.1543911433 -0.9608902435 0.3923134700
-0.1620201367 -0.0949919015 -0.9352689511
-0.2155760718 0.2834317774 0.6161681487
0.8143447443 0.3450269213 -0.7764393829
-0.7322335626 0.9895868516 -0.8721889200
-0.2767701415 0.9210472822 0.2548161471
-0.2597399435 0.0362726242 -0.3008476900
-0.3488268025 -0.3071491740 0.9333125545
-0.9403190953 -0.0398578245 0.2580672851
0.2185810180 -0.1280174344 -0.7569433247
0.8174698550 -0.9150809461 -0.8822500276
-0.9588524809 0.2073953388 0.2668472954
-0.2233103290 0.0213922977 -0.3910871525
0.2228544365 0.1229743297 -0.4868280958
-0.4971536845 0.9292963805 -0.0434747514
0.1006378729 0.4339569613 -0.9548808503
-0.3126719992 0.4527424555 -0.8454115841
-0.6128018664 -0.7687924194 -0.2171905873
-0.8231221366 0.0755080875 -0.4195548818
0.9918114928 0.8916710958 0.5662195424
0.1247040941 -0.1091821815 0.9388232965
0.6245510146 0.7149452056 0.1826327352
0.0267344304 -0.0006160593 -0.5188659786
-0.9064005891 -0.8270936522 0.6416802764
-0.1776138798 -0.7926947521 -0.0582827507
-0.5082822555 0.4277741631 0.9615656696
0.6956086597 0.3827147094 0.1031201210
0.0332413717 -0.9992278122 0.3787614854
-0.7922112594 0.2498865608 0.2113722452
0.0941165639 0.3542639495 -0.6018013789
-0.1701959297 -0.3829515755 -0.4428428286
-0.2281116320 -0.5401770001 0.1777915067
0.3070950652 -0.8351789774 0.2030876289
0.1725139326 0.6836068998 -0.5413361277
0.3190733780 -0.5070919786 0.1583765776
-0.8291083739 -0.3384516014 0.9022358171
-0.4009788963 0.4636661689 0.1011591967
0.8142886746 -0.3888698173 -0.7997674164
-0.7643121298 0.2507623917 -0.8331438219
0.2095215554 0.2813289649 -0.6393390498
-0.3946856468 0.5446012032 0.5718224991
0.0816077300 -0.9540872454 -0.9504452121
0.4371310977 0.0038003528 -0.8276790783
